ply
format ascii 1.0
element vertex 1186
property float x
property float y
property float z
property uchar red
property uchar green
property uchar blue
end_header
3.120160 2.987586 -22.644497 141 168 142
47.873806 47.754700 -361.958130 65 75 58
47.373806 47.754700 -361.958130 59 70 50
46.873806 47.754700 -361.958130 49 61 41
46.373806 47.754700 -361.958130 62 75 59
38.841099 40.214485 -304.806854 43 59 42
3.384083 4.238975 -32.129433 27 32 31
2.040350 2.941579 -22.295784 70 88 65
2.019120 2.933110 -22.231594 69 88 67
1.998013 2.924690 -22.167770 74 95 73
1.994152 2.941579 -22.295784 69 90 68
1.973055 2.933110 -22.231594 76 95 74
1.957700 2.933110 -22.231594 83 98 77
1.932554 2.941579 -22.295784 51 62 46
1.907973 2.927491 -22.189005 53 63 47
1.466094 2.872463 -21.771917 64 82 51
1.425302 2.851027 -21.609440 104 118 94
1.410377 2.851027 -21.609440 106 118 96
1.395451 2.851027 -21.609440 67 78 58
1.120891 3.080948 -23.352137 69 89 60
1.104762 3.080948 -23.352137 145 165 136
1.087536 3.077846 -23.328621 127 144 117
5.187741 15.130202 -114.679802 52 68 45
5.108533 15.130202 -114.679802 58 73 52
0.502875 3.625505 -27.479620 136 155 130
0.483895 3.625505 -27.479620 38 50 30
0.464915 3.625505 -27.479620 34 44 28
0.067093 2.851027 -21.609440 61 70 57
0.052168 2.851027 -21.609440 66 75 62
0.037242 2.851027 -21.609440 45 54 41
0.022317 2.851027 -21.609440 39 48 35
0.007391 2.851027 -21.609440 47 56 43
-0.097908 2.875165 -21.792398 57 63 52
-0.112011 2.851027 -21.609440 55 61 50
-0.126937 2.851027 -21.609440 43 49 38
22.452154 9.048514 -68.944405 0 0 0
21.386147 8.637218 -65.810570 0 0 0
20.412836 8.261687 -62.949242 0 0 0
19.520636 7.917450 -60.326355 0 0 0
18.746675 7.619802 -58.058449 0 0 0
7.059227 3.108692 -23.686422 28 21 18
6.922536 3.055579 -23.281729 28 23 20
6.803885 3.010199 -22.935961 27 22 21
6.688706 2.966147 -22.600313 27 23 22
6.449833 2.873630 -21.895388 28 24 23
6.335750 2.836102 -21.609440 26 22 21
6.320825 2.836102 -21.609440 28 25 21
6.305899 2.836102 -21.609440 31 28 24
6.290974 2.836102 -21.609440 31 26 23
24.971352 12.308910 -93.786720 56 44 38
69.673531 35.352333 -269.364197 84 73 65
66.399155 33.781120 -257.392456 18 14 9
63.403446 32.343624 -246.439575 14 14 8
63.233231 32.343624 -246.439575 11 12 10
64.433952 33.046749 -251.796967 11 12 10
66.426109 34.160683 -260.284485 14 12 12
59.554787 30.710110 -233.993134 14 12 12
51.129772 26.437399 -201.437561 12 13 11
44.762775 23.208403 -176.834503 9 12 10
39.781796 20.682318 -157.587219 12 13 11
17.674763 9.500940 -72.391624 7 10 8
6.908998 3.735013 -28.458624 9 11 11
6.814002 3.694169 -28.147411 13 15 15
6.769884 3.680752 -28.045181 18 16 16
6.742351 3.676301 -28.011271 40 36 35
24.139406 13.276423 -101.158607 145 135 135
24.175104 13.334653 -101.602280 120 114 115
24.535374 13.572771 -103.416611 132 129 131
11.514987 6.580738 -50.141384 156 154 144
11.237126 6.441315 -49.079067 167 164 159
12.365202 7.308415 -55.685867 160 155 152
12.416281 7.361503 -56.090363 142 134 127
12.437771 7.397326 -56.363308 139 126 118
5.584993 3.543474 -26.999208 142 126 119
9.015975 6.129639 -46.704273 151 145 140
7.703046 5.371556 -40.928127 163 151 149
7.581019 5.305935 -40.428135 167 158 155
7.436295 5.223885 -39.802956 172 163 160
62.873806 47.504700 -361.958130 169 164 163
62.623806 47.504700 -361.958130 166 161 158
62.373806 47.504700 -361.958130 166 163 159
62.123806 47.504700 -361.958130 172 170 162
61.873806 47.504700 -361.958130 169 170 161
52.585648 40.537342 -308.870941 126 128 116
5.451644 4.655897 -35.475224 126 135 115
5.361458 4.599547 -35.045872 144 152 135
3.230233 3.031207 -23.096033 89 113 83
3.198337 3.016171 -22.981468 115 138 110
3.129337 2.980687 -22.711098 149 172 150
47.623806 47.504700 -361.958130 66 73 58
47.373806 47.504700 -361.958130 63 73 56
46.873806 47.504700 -361.958130 46 58 40
2.026695 2.906597 -22.146578 64 81 60
2.009478 2.903821 -22.125425 64 83 62
1.986607 2.892770 -22.041218 61 80 59
1.925143 2.914958 -22.210278 44 53 40
2.748155 4.228513 -32.218803 66 76 59
1.440227 2.836102 -21.609440 48 62 38
1.425302 2.836102 -21.609440 62 72 55
1.410377 2.836102 -21.609440 60 67 52
1.395451 2.836102 -21.609440 63 70 55
1.090832 3.071011 -23.399313 191 210 183
5.108533 15.050994 -114.679802 55 70 49
0.520004 3.593736 -27.382175 124 148 118
0.501092 3.593736 -27.382175 108 126 103
0.482179 3.593736 -27.382175 41 52 36
0.463267 3.593736 -27.382175 25 33 22
-0.097908 2.860114 -21.792398 58 62 56
-0.112011 2.836102 -21.609440 61 65 59
22.452154 9.000896 -68.944405 0 0 0
21.386147 8.591763 -65.810570 0 0 0
20.357517 8.195937 -62.778645 0 0 0
19.469933 7.855327 -60.169662 0 0 0
18.746675 7.579701 -58.058449 0 0 0
7.059227 3.092332 -23.686422 28 20 20
6.922536 3.039498 -23.281729 28 23 22
6.797155 2.991395 -22.913275 29 24 23
6.682187 2.947662 -22.578285 27 23 22
6.570532 2.905188 -22.252949 26 22 21
6.449833 2.858507 -21.895388 27 23 22
6.335750 2.821176 -21.609440 28 24 23
6.320825 2.821176 -21.609440 28 24 23
6.305899 2.821176 -21.609440 28 24 23
6.290974 2.821176 -21.609440 29 24 21
6.276048 2.821176 -21.609440 30 25 22
8.102598 3.882286 -29.737253 43 37 32
25.874159 12.653978 -96.926025 56 46 39
24.971352 12.244133 -93.786720 55 43 37
68.929344 35.166286 -269.364197 11 12 10
75.793892 38.773087 -296.991272 14 12 12
18.127960 9.693272 -74.247818 4 9 7
6.926014 3.724508 -28.528719 9 11 11
6.830602 3.683679 -28.215981 13 15 15
6.769884 3.661381 -28.045181 22 20 19
6.726084 3.648131 -27.943691 39 35 34
8.884429 4.917562 -37.667187 110 119 122
8.801169 4.885785 -37.423782 89 101 101
8.718979 4.854415 -37.183498 96 105 102
8.665478 4.838881 -37.064514 111 119 112
12.493762 7.322762 -56.090363 90 86 85
12.365202 7.269954 -55.685867 150 145 142
5.616734 3.533062 -27.062290 159 140 135
5.591510 3.528939 -27.030712 164 148 142
9.103293 6.134484 -46.988480 149 143 138
9.034189 6.109699 -46.798626 161 155 150
6.114177 4.320430 -33.093315 115 108 105
6.048119 4.289788 -32.858612 171 164 161
5.004694 3.617585 -27.709713 166 157 154
4.955914 3.596077 -27.544971 162 153 150
63.123806 47.254700 -361.958130 172 167 166
62.873806 47.254700 -361.958130 174 169 168
62.623806 47.254700 -361.958130 174 171 167
62.373806 47.254700 -361.958130 177 174 170
62.123806 47.254700 -361.958130 171 169 161
61.873806 47.254700 -361.958130 173 171 163
52.585648 40.324009 -308.870941 163 163 151
5.426713 4.610215 -35.312988 116 129 107
5.337234 4.554670 -34.887531 123 135 115
3.269000 3.036447 -23.258354 69 84 56
3.236687 3.021280 -23.142178 82 97 69
3.204695 3.006263 -23.027157 99 115 91
3.126272 2.962097 -22.688854 136 155 134
3.086417 2.939068 -22.512459 143 162 141
2.797452 3.710799 -28.423706 53 62 49
2.750818 3.674728 -28.147411 50 57 44
2.708342 3.643736 -27.910025 62 69 54
2.836051 4.271611 -32.719379 44 53 40
2.801580 4.253588 -32.581322 41 51 35
2.759670 4.223884 -32.353798 65 78 56
2.703343 4.171449 -31.952166 80 94 70
1.467473 2.845062 -21.792398 39 50 30
1.440227 2.821176 -21.609440 45 55 38
1.425302 2.821176 -21.609440 56 62 51
1.410377 2.821176 -21.609440 51 57 46
1.395451 2.821176 -21.609440 44 48 37
1.786410 4.247613 -32.535561 103 130 97
0.538917 3.574824 -27.382175 88 120 85
0.520004 3.574824 -27.382175 130 155 129
0.501092 3.574824 -27.382175 60 78 61
0.482179 3.574824 -27.382175 35 46 36
0.463267 3.574824 -27.382175 23 30 25
22.385530 8.926708 -68.739822 0 0 0
21.325563 8.522099 -65.624138 0 0 0
20.357517 8.152576 -62.778645 0 0 0
19.469933 7.813768 -60.169662 0 0 0
18.699810 7.520752 -57.913300 0 0 0
7.052016 3.072830 -23.662228 28 20 20
6.922536 3.023418 -23.281729 27 19 19
6.797155 2.975569 -22.913275 27 22 21
6.682187 2.932067 -22.578285 28 24 23
6.570532 2.889818 -22.252949 29 25 24
6.443743 2.840699 -21.874712 30 26 25
6.335750 2.806251 -21.609440 27 23 22
6.320825 2.806251 -21.609440 28 24 23
6.305899 2.806251 -21.609440 30 26 25
6.290974 2.806251 -21.609440 27 22 19
6.276048 2.806251 -21.609440 29 24 21
8.102598 3.861747 -29.737253 41 35 30
25.982874 12.639919 -97.333275 52 42 35
25.072861 12.228865 -94.167969 54 42 36
24.906574 12.179356 -93.786720 68 54 48
91.623810 47.004700 -361.958130 12 13 11
77.972321 40.110676 -308.870941 11 11 11
6.980104 3.723145 -28.669950 12 15 13
6.934555 3.709372 -28.563896 9 11 11
6.838932 3.668659 -28.250391 16 16 16
6.778090 3.646425 -28.079176 18 19 17
6.698703 3.624459 -27.910025 161 154 151
8.890200 4.852098 -37.363419 217 209 209
8.983481 4.931641 -37.975933 133 134 138
8.898899 4.899513 -37.728535 101 106 109
8.829699 4.875690 -37.545090 92 100 100
8.803766 4.875690 -37.545090 103 110 107
12.524087 7.301701 -56.226505 91 88 84
12.335548 7.214150 -55.552326 152 147 144
9.140374 6.126885 -47.179878 141 135 130
9.089276 6.114432 -47.083984 165 156 153
6.122924 4.303721 -33.140659 115 107 107
4.926624 3.555911 -27.382175 167 158 155
55.560596 41.209599 -317.333160 155 150 149
55.341419 41.209599 -317.333160 180 175 174
62.873806 47.004700 -361.958130 169 163 164
62.623806 47.004700 -361.958130 187 183 182
62.373806 47.004700 -361.958130 181 178 174
62.123806 47.004700 -361.958130 182 180 172
53.512482 40.652714 -313.044861 179 178 168
51.219788 39.068840 -300.848328 165 167 155
3.120160 2.940665 -22.644497 89 103 85
2.829437 4.273155 -32.905285 45 55 39
2.775174 4.225142 -32.535561 60 73 51
2.737324 4.201538 -32.353798 98 112 88
1.455153 2.806251 -21.609440 39 46 31
1.440227 2.806251 -21.609440 44 50 39
1.425302 2.806251 -21.609440 55 58 49
1.410377 2.806251 -21.609440 42 45 36
1.395451 2.806251 -21.609440 40 41 31
1.380526 2.806251 -21.609440 34 38 26
1.793969 4.243020 -32.673229 90 112 84
1.731737 4.201538 -32.353798 98 122 90
22.385530 8.879230 -68.739822 0 0 0
21.325563 8.476772 -65.624138 0 0 0
20.302496 8.087299 -62.608974 0 0 0
19.419493 7.752075 -60.013783 0 0 0
18.699810 7.480752 -57.913300 0 0 0
7.200753 3.113736 -24.105433 29 24 23
7.044820 3.053368 -23.638083 30 22 22
6.922536 3.007338 -23.281729 28 20 20
6.797155 2.959743 -22.913275 27 22 21
6.675681 2.913633 -22.556301 27 22 21
6.570532 2.874448 -22.252949 27 22 21
6.443743 2.825591 -21.874712 28 23 22
6.335750 2.791325 -21.609440 30 27 23
6.320825 2.791325 -21.609440 29 26 22
6.305899 2.791325 -21.609440 27 24 20
6.290974 2.791325 -21.609440 31 28 24
6.276048 2.791325 -21.609440 28 25 21
6.261123 2.791325 -21.609440 31 27 22
8.113012 3.846145 -29.775476 43 39 34
25.874159 12.520087 -96.926025 55 43 37
24.971352 12.114578 -93.786720 58 45 37
24.806145 12.065729 -93.408546 63 50 42
91.873810 46.754700 -361.958130 11 15 10
91.623810 46.754700 -361.958130 9 13 8
80.108543 40.990421 -317.333160 7 10 8
6.934555 3.689643 -28.563896 13 14 12
6.838932 3.649147 -28.250391 15 16 14
6.726084 3.609530 -27.943691 30 26 25
6.674578 3.592198 -27.809507 157 147 147
8.930410 4.834088 -37.423782 230 220 220
8.904562 4.834088 -37.423782 229 221 222
9.057725 4.945952 -38.289787 202 202 202
8.957253 4.905411 -37.975933 137 137 137
8.901836 4.889380 -37.851830 107 108 106
9.250729 5.141410 -39.802956 70 79 59
9.175939 5.115044 -39.598839 100 107 86
17.430380 10.920806 -84.544968 167 155 151
17.499720 11.001106 -85.166618 162 151 147
17.318403 10.960809 -84.854652 120 111 107
17.196802 10.920806 -84.544968 127 121 116
6.356213 4.299283 -33.283504 181 169 167
6.288051 4.268617 -33.046104 189 177 175
6.229679 4.244398 -32.858612 186 177 174
6.171966 4.220452 -32.673229 185 175 175
53.367416 39.372379 -304.806854 166 159 156
52.466541 38.861050 -300.848328 192 184 184
55.122242 40.990421 -317.333160 160 150 156
54.903061 40.990421 -317.333160 204 197 200
53.944912 40.436497 -313.044861 192 189 185
54.464706 40.990421 -317.333160 188 186 178
52.104259 39.372379 -304.806854 174 177 162
49.299046 37.403759 -289.566498 140 145 130
3.123213 2.927887 -22.666655 88 100 82
13.910954 14.740398 -114.114876 46 47 38
13.244923 14.114626 -109.270378 54 55 46
12.748509 13.663474 -105.777718 48 55 42
2.431105 3.431538 -26.565735 68 78 62
2.317340 3.321089 -25.710678 40 50 34
2.748155 4.161754 -32.218803 64 76 56
1.455153 2.791325 -21.609440 42 43 33
1.440227 2.791325 -21.609440 44 45 36
1.425302 2.791325 -21.609440 42 42 36
1.410377 2.791325 -21.609440 47 48 39
1.395451 2.791325 -21.609440 43 45 33
1.380526 2.791325 -21.609440 44 49 34
1.365600 2.791325 -21.609440 31 38 23
1.791442 4.214508 -32.627213 56 68 50
1.731737 4.179191 -32.353798 60 82 57
1.699894 4.155973 -32.174057 81 106 78
0.715559 2.817609 -21.812920 41 38 40
0.693959 2.791325 -21.609440 65 63 63
0.679033 2.791325 -21.609440 85 89 84
0.664108 2.791325 -21.609440 83 90 83
22.385530 8.831753 -68.739822 0 0 0
21.265322 8.407629 -65.438759 0 0 0
20.302496 8.044056 -62.608974 0 0 0
19.419493 7.710624 -60.013783 0 0 0
18.699810 7.440752 -57.913300 0 0 0
7.193268 3.093868 -24.080374 27 22 21
7.044820 3.037042 -23.638083 29 24 23
6.922536 2.991257 -23.281729 26 21 20
6.797155 2.943918 -22.913275 24 19 18
6.675681 2.898053 -22.556301 25 20 19
6.564226 2.856335 -22.231594 27 22 21
6.443743 2.810482 -21.874712 28 23 22
6.335750 2.776400 -21.609440 27 24 20
6.320825 2.776400 -21.609440 26 23 19
6.305899 2.776400 -21.609440 24 21 17
6.290974 2.776400 -21.609440 29 26 22
6.276048 2.776400 -21.609440 28 25 21
6.261123 2.776400 -21.609440 29 25 20
8.104203 3.880444 -30.202503 55 45 38
8.062320 3.870352 -30.123953 57 45 39
7.999901 3.850324 -29.968073 55 41 35
7.906878 3.845350 -29.929354 84 69 60
7.845660 3.825579 -29.775476 107 84 76
7.665726 3.767469 -29.323191 142 120 108
7.587844 3.739071 -29.102161 158 139 126
91.623810 46.504700 -361.958130 13 17 12
6.926014 3.665395 -28.528719 14 15 13
6.822292 3.620804 -28.181654 15 16 14
6.761697 3.598913 -28.011271 18 19 17
6.685760 3.568706 -27.776163 26 22 21
8.944860 4.816020 -37.484337 231 218 220
9.250729 5.113919 -39.802956 70 79 59
9.175939 5.087694 -39.598839 108 118 95
17.623335 10.982659 -85.480888 173 164 161
17.629347 11.023336 -85.797485 176 167 164
17.505255 10.982659 -85.480888 170 163 160
17.446213 10.982659 -85.480888 120 115 112
17.259794 10.902201 -84.854652 125 120 117
16.952793 10.744768 -83.629318 174 167 164
6.356213 4.276294 -33.283504 169 160 157
6.279094 4.239745 -32.999031 176 167 164
6.229679 4.221703 -32.858612 175 167 167
6.171966 4.197886 -32.673229 178 167 169
52.674332 38.653255 -300.848328 160 153 150
49.875599 36.744453 -285.991608 192 184 184
50.935741 37.674694 -293.231903 157 147 153
52.050957 38.653255 -300.848328 196 189 192
51.843163 38.653255 -300.848328 187 184 180
52.314785 39.161854 -304.806854 185 186 176
48.887947 36.744453 -285.991608 169 175 158
46.951469 35.432152 -275.777618 158 166 149
48.123806 46.504700 -361.958130 71 78 65
47.873806 46.504700 -361.958130 75 82 69
47.623806 46.504700 -361.958130 61 68 55
47.373806 46.504700 -361.958130 61 68 55
47.123806 46.504700 -361.958130 65 72 59
46.873806 46.504700 -361.958130 45 51 40
46.623806 46.504700 -361.958130 46 53 40
13.244923 14.039155 -109.270378 44 46 40
12.576232 13.406760 -104.348289 46 52 41
10.845548 11.764034 -91.562531 96 110 92
2.431105 3.413189 -26.565735 53 60 47
2.369283 3.351690 -26.087072 69 78 65
2.317340 3.303330 -25.710678 52 61 48
1.440227 2.776400 -21.609440 42 42 36
1.425302 2.776400 -21.609440 41 38 33
1.410377 2.776400 -21.609440 43 43 37
1.395451 2.776400 -21.609440 46 50 39
1.380526 2.776400 -21.609440 54 58 47
1.365600 2.776400 -21.609440 47 53 42
1.350675 2.776400 -21.609440 55 62 49
1.729322 4.151047 -32.308674 81 100 81
0.714214 2.797275 -21.771917 55 54 58
0.693959 2.776400 -21.609440 51 50 52
0.679033 2.776400 -21.609440 44 46 46
0.664108 2.776400 -21.609440 63 66 64
22.452154 8.810419 -68.944405 0 0 0
21.325563 8.386121 -65.624138 0 0 0
20.357517 8.022495 -62.778645 0 0 0
19.469933 7.689093 -60.169662 0 0 0
18.746675 7.419300 -58.058449 0 0 0
7.200753 3.080438 -24.105433 23 19 18
7.044820 3.020715 -23.638083 25 21 20
6.922536 2.975177 -23.281729 24 19 18
6.803885 2.930991 -22.935961 24 19 18
6.682187 2.885283 -22.578285 27 22 21
6.570532 2.843709 -22.252949 28 25 21
6.455935 2.800663 -21.916103 29 26 22
6.335750 2.761475 -21.609440 28 25 21
6.290974 2.761475 -21.609440 31 28 24
6.276048 2.761475 -21.609440 31 28 24
6.261123 2.761475 -21.609440 30 25 22
8.041299 3.829626 -29.968073 50 41 37
8.010238 3.824678 -29.929354 54 44 37
7.979257 3.819743 -29.890736 54 42 36
7.938126 3.809911 -29.813797 58 46 40
7.907357 3.805014 -29.775476 65 53 47
7.886500 3.814821 -29.852217 85 70 61
7.825543 3.795257 -29.699129 109 86 78
7.735609 3.761500 -29.434969 122 97 87
7.695721 3.751966 -29.360355 133 109 97
7.656035 3.742479 -29.286119 141 119 107
7.587844 3.718971 -29.102161 158 139 126
6.908998 3.636733 -28.458624 11 14 12
6.814002 3.596963 -28.147411 12 15 13
6.745385 3.570930 -27.943691 19 20 18
9.250729 5.086428 -39.802956 62 70 53
39.633007 22.597715 -176.834503 173 168 165
17.629347 10.964077 -85.797485 169 164 163
17.505255 10.923619 -85.480888 173 169 168
17.446213 10.923619 -85.480888 115 111 110
17.323250 10.883459 -85.166618 119 115 114
17.014217 10.725727 -83.932320 169 165 164
16.956245 10.725727 -83.932320 167 163 162
6.338000 4.241118 -33.188137 174 166 166
6.252374 4.199008 -32.858612 172 164 164
6.212056 4.187130 -32.765659 173 168 167
52.674332 38.445465 -300.848328 156 153 148
49.267361 36.101231 -282.503906 169 166 162
49.072239 36.101231 -282.503906 159 154 155
48.877117 36.101231 -282.503906 181 179 178
48.681995 36.101231 -282.503906 177 178 169
49.699043 37.003761 -289.566498 182 186 174
48.123806 46.254700 -361.958130 72 78 67
47.873806 46.254700 -361.958130 66 72 61
47.623806 46.254700 -361.958130 72 78 67
47.373806 46.254700 -361.958130 49 57 46
47.123806 46.254700 -361.958130 118 126 115
46.873806 46.254700 -361.958130 71 79 69
46.623806 46.254700 -361.958130 67 75 64
13.182740 13.898126 -108.757370 43 47 42
12.299223 13.040973 -102.049866 74 82 72
11.470758 12.232648 -95.724464 103 113 100
10.995711 11.794027 -92.292114 113 125 107
10.513117 11.342149 -88.756020 118 129 113
10.216942 11.087269 -86.761497 57 68 52
2.431105 3.394840 -26.565735 59 65 54
2.369283 3.333672 -26.087072 51 59 49
2.317340 3.285573 -25.710678 58 66 56
2.266875 3.238841 -25.344990 64 73 63
1.440227 2.761475 -21.609440 51 52 48
1.425302 2.761475 -21.609440 49 48 44
1.410377 2.761475 -21.609440 47 48 44
1.395451 2.761475 -21.609440 50 51 47
1.380526 2.761475 -21.609440 59 63 58
1.365600 2.761475 -21.609440 58 62 57
1.350675 2.761475 -21.609440 64 68 62
1.335750 2.761475 -21.609440 66 73 66
0.693959 2.761475 -21.609440 111 110 119
-0.291116 2.761475 -21.609440 215 225 225
-0.306041 2.761475 -21.609440 221 232 230
-0.320967 2.761475 -21.609440 216 227 224
-0.335892 2.761475 -21.609440 218 230 224
22.519176 8.788958 -69.150208 0 0 0
21.447077 8.388321 -65.998062 0 0 0
20.468458 8.022618 -63.120766 0 0 0
19.571602 7.687469 -60.483864 0 0 0
18.793779 7.397741 -58.204323 0 0 0
10.805857 4.394479 -34.575104 1 1 1
10.670493 4.349041 -34.217609 3 1 1
10.568803 4.317157 -33.966743 4 2 2
6.468174 2.790807 -21.957649 25 22 18
6.335750 2.746549 -21.609440 26 23 19
6.276048 2.746549 -21.609440 27 24 20
6.261123 2.746549 -21.609440 28 23 20
7.341861 3.459813 -27.221292 45 41 36
7.989593 3.794202 -29.852217 51 43 36
7.948488 3.784448 -29.775476 54 44 37
7.887371 3.765090 -29.623171 57 47 40
7.846842 3.755486 -29.547602 66 54 48
7.836429 3.760282 -29.585339 73 62 54
7.866226 3.784448 -29.775476 87 71 64
7.795560 3.760282 -29.585339 110 87 79
7.716000 3.731687 -29.360355 127 100 90
7.695721 3.731687 -29.360355 136 111 101
7.656035 3.722251 -29.286119 144 120 108
7.587844 3.698870 -29.102161 158 136 124
6.797483 3.568849 -28.079176 13 16 14
6.729150 3.543082 -27.876438 19 20 18
6.653847 3.513485 -27.643579 23 19 18
6.626846 3.509298 -27.610632 141 131 131
6.269187 3.388148 -26.657446 224 219 220
9.282627 5.076381 -39.940208 69 76 61
9.191650 5.041611 -39.666645 104 110 93
41.663391 23.554407 -185.322556 192 187 186
40.881290 23.183470 -182.404099 171 166 163
42.511768 24.333065 -191.448929 133 128 125
17.382072 10.824636 -85.166618 117 115 115
17.323250 10.824636 -85.166618 114 112 112
17.138409 10.745624 -84.544968 165 163 163
6.243518 4.170398 -32.812069 168 163 162
51.340805 37.269630 -293.231903 139 136 131
48.094330 35.051201 -275.777618 151 148 143
47.903851 35.051201 -275.777618 156 152 151
48.877117 35.906109 -282.503906 160 158 157
48.681995 35.906109 -282.503906 164 165 156
48.123806 46.004700 -361.958130 64 68 62
47.873806 46.004700 -361.958130 86 91 82
47.623806 46.004700 -361.958130 96 101 92
47.373806 46.004700 -361.958130 138 145 138
47.123806 46.004700 -361.958130 76 84 77
46.873806 46.004700 -361.958130 77 85 78
46.623806 46.004700 -361.958130 78 86 79
13.979819 14.575747 -114.679802 53 58 56
13.121139 13.758415 -108.249161 56 61 59
12.138798 12.801308 -100.718781 88 94 89
11.470758 12.166533 -95.724464 62 72 60
10.995711 11.730282 -92.292114 113 123 110
10.513117 11.280846 -88.756020 129 139 127
10.216942 11.027344 -86.761497 79 89 77
2.431105 3.376492 -26.565735 56 60 54
2.369283 3.315654 -26.087072 67 73 68
2.317340 3.267814 -25.710678 83 89 84
2.266875 3.221336 -25.344990 72 79 74
1.440227 2.746549 -21.609440 163 165 165
1.425302 2.746549 -21.609440 169 169 169
1.410377 2.746549 -21.609440 163 165 165
1.395451 2.746549 -21.609440 166 168 169
1.380526 2.746549 -21.609440 175 177 178
1.365600 2.746549 -21.609440 177 179 179
1.350675 2.746549 -21.609440 185 187 187
1.335750 2.746549 -21.609440 191 196 195
1.320824 2.746549 -21.609440 190 195 194
0.308779 2.772411 -21.812920 223 225 236
-0.291116 2.746549 -21.609440 202 208 219
-0.306041 2.746549 -21.609440 202 209 218
-0.320967 2.746549 -21.609440 195 201 206
-0.335892 2.746549 -21.609440 195 201 206
22.654427 8.793696 -69.565529 0 0 0
21.569983 8.390547 -66.376274 0 0 0
20.524382 8.000822 -63.293224 0 0 0
19.622837 7.665709 -60.642200 0 0 0
18.888697 7.394699 -58.498283 0 0 0
10.805857 4.370598 -34.575104 0 0 0
10.670493 4.325408 -34.217609 3 1 1
10.584323 4.300001 -34.016624 4 2 2
6.486619 2.783556 -22.020266 22 19 15
6.261123 2.731624 -21.609440 27 24 20
6.246198 2.731624 -21.609440 26 23 19
7.341861 3.441011 -27.221292 39 36 31
7.958824 3.759051 -29.737253 48 42 37
7.907831 3.744630 -29.623171 50 41 37
7.837260 3.720840 -29.434969 51 43 36
7.797115 3.711408 -29.360355 61 51 44
7.776836 3.711408 -29.360355 71 61 54
7.836010 3.749425 -29.661102 85 72 64
7.785617 3.735078 -29.547602 109 86 78
7.716000 3.711408 -29.360355 125 98 88
7.695721 3.711408 -29.360355 137 110 100
7.665726 3.706710 -29.323191 142 117 107
7.597388 3.683397 -29.138767 159 135 123
6.781044 3.540872 -28.011271 12 15 13
6.721062 3.519592 -27.842934 18 19 17
6.661797 3.498567 -27.676607 24 20 19
6.634754 3.494392 -27.643579 138 128 128
6.615661 3.494392 -27.643579 218 206 206
6.580862 3.486072 -27.577763 227 214 216
6.522987 3.465445 -27.414579 226 218 219
6.424295 3.432944 -27.157469 221 218 220
6.368209 3.412938 -26.999208 221 216 218
6.269187 3.369736 -26.657446 220 215 216
6.193756 3.338997 -26.414276 223 219 218
6.085308 3.290226 -26.028450 229 228 224
42.340843 23.807323 -188.335938 192 185 182
43.360706 24.607569 -194.666550 99 93 86
42.866032 24.402506 -193.044342 142 136 131
17.505255 10.805538 -85.480888 181 177 176
17.510830 10.845558 -85.797485 125 121 120
17.516445 10.885877 -86.116432 119 115 114
17.328133 10.805538 -85.480888 174 170 169
17.205603 10.765812 -85.166618 146 142 141
16.840303 10.609785 -83.932320 183 178 177
6.338000 4.195273 -33.188137 156 151 152
6.261255 4.159518 -32.905285 175 170 171
55.122242 40.113708 -317.333160 149 144 143
53.438980 39.044010 -308.870941 154 149 148
50.530678 37.067097 -293.231903 161 158 150
3.749665 3.003385 -23.759302 107 117 101
47.873806 45.754700 -361.958130 79 83 78
47.623806 45.754700 -361.958130 80 84 79
47.373806 45.754700 -361.958130 96 102 97
47.123806 45.754700 -361.958130 64 70 65
46.873806 45.754700 -361.958130 57 63 58
46.623806 45.754700 -361.958130 70 76 71
14.119617 14.641504 -115.826599 66 72 71
13.435041 14.011008 -110.838852 77 83 82
12.748509 13.371237 -105.777718 66 73 70
11.762388 12.408054 -98.158134 84 91 86
11.084030 11.760244 -93.033417 118 126 119
10.760485 11.483533 -90.844391 112 119 112
10.333044 11.092049 -87.747429 129 136 129
9.755121 10.533456 -83.328491 127 133 128
9.201104 9.994201 -79.062523 89 95 90
8.672892 9.476702 -74.968674 77 80 78
2.281854 3.225001 -25.512466 193 199 198
1.440227 2.731624 -21.609440 232 236 237
1.425302 2.731624 -21.609440 236 238 239
1.410377 2.731624 -21.609440 229 230 234
1.395451 2.731624 -21.609440 233 233 239
1.380526 2.731624 -21.609440 233 233 239
1.365600 2.731624 -21.609440 227 230 235
1.350675 2.731624 -21.609440 227 230 235
1.335750 2.731624 -21.609440 227 230 234
1.320824 2.731624 -21.609440 223 226 230
0.308779 2.757345 -21.812920 159 163 174
-0.278267 2.752162 -21.771917 165 168 182
-0.306041 2.731624 -21.609440 163 168 177
-0.320967 2.731624 -21.609440 166 170 175
-0.335892 2.731624 -21.609440 163 167 172
19.726116 7.663949 -60.961369 0 0 0
10.789752 4.340240 -34.523579 0 0 0
10.670493 4.301774 -34.217609 2 0 0
10.584323 4.276506 -34.016624 3 1 1
6.492792 2.770981 -22.041218 26 23 19
6.276048 2.716698 -21.609440 26 25 21
6.261123 2.716698 -21.609440 29 26 22
6.246198 2.716698 -21.609440 26 23 19
5.902914 2.716698 -21.609440 34 33 29
7.465940 3.471157 -27.610632 40 37 32
7.359157 3.430272 -27.285418 41 38 33
7.867924 3.695813 -29.397615 48 42 37
7.837673 3.691129 -29.360355 48 42 37
7.807498 3.686457 -29.323191 49 41 34
7.777400 3.681796 -29.286119 56 48 41
7.766992 3.686457 -29.323191 70 60 53
7.766401 3.695813 -29.397615 85 72 64
7.765806 3.705217 -29.472418 110 86 80
7.706233 3.686457 -29.323191 123 95 88
7.676263 3.681796 -29.286119 134 107 97
7.665726 3.686457 -29.323191 141 114 104
7.606957 3.667885 -29.175467 159 135 123
7.548777 3.649500 -29.029224 169 147 135
20.450253 9.939593 -79.062523 128 112 105
10.098678 4.961330 -39.463921 20 15 16
9.986358 4.919427 -39.130608 13 11 10
9.875919 4.878226 -38.802883 15 13 12
6.789254 3.525788 -28.045181 11 14 12
6.721062 3.500361 -27.842934 19 20 18
6.653847 3.475299 -27.643579 25 21 20
6.626846 3.471157 -27.610632 135 125 125
6.607776 3.471157 -27.610632 217 203 204
6.573037 3.462902 -27.544971 230 217 219
6.515276 3.442436 -27.382175 233 225 226
6.450615 3.418193 -27.189342 232 227 229
6.446969 3.426236 -27.253319 224 221 223
6.375640 3.398251 -27.030712 224 219 221
6.283649 3.359055 -26.718939 219 214 216
6.207913 3.328344 -26.474651 226 221 222
6.099013 3.279618 -26.087072 232 228 227
6.954998 3.962314 -31.517443 154 145 142
17.647655 10.907494 -86.761497 127 123 122
17.522104 10.866794 -86.437759 158 154 153
17.462402 10.866794 -86.437759 160 156 155
17.278526 10.826397 -86.116432 185 180 179
16.661596 10.475903 -83.328491 189 184 183
53.438980 38.830677 -308.870941 162 156 157
49.899044 36.403759 -289.566498 165 161 156
50.328148 36.864567 -293.231903 160 158 150
48.291752 35.515862 -282.503906 153 155 143
46.399101 34.262363 -272.533173 141 145 133
3.801163 3.014804 -23.980663 112 120 110
3.761238 2.996194 -23.832634 86 94 84
47.623806 45.504700 -361.958130 155 157 157
47.373806 45.504700 -361.958130 165 167 167
47.123806 45.504700 -361.958130 160 165 164
46.873806 45.504700 -361.958130 160 162 162
46.623806 45.504700 -361.958130 173 178 177
14.407773 14.858678 -118.190407 204 209 212
13.832136 14.346310 -114.114876 212 215 219
13.046371 13.608882 -108.249161 213 218 219
12.016985 12.607363 -100.282768 218 224 223
11.404643 12.034301 -95.724464 212 219 216
10.975695 11.649203 -92.661278 223 228 226
10.451815 11.158240 -88.756020 223 228 226
9.970307 10.706988 -85.166618 225 230 229
9.459381 10.218599 -81.281822 224 229 228
8.903400 9.675418 -76.961197 229 231 232
2.456458 3.374624 -26.842781 237 240 244
2.340722 3.264911 -25.970091 240 243 247
2.291951 3.221572 -25.625355 233 238 241
2.237131 3.168989 -25.207094 231 236 239
1.440227 2.716698 -21.609440 165 168 172
1.425302 2.716698 -21.609440 166 169 173
1.410377 2.716698 -21.609440 164 167 172
1.395451 2.716698 -21.609440 165 164 173
1.380526 2.716698 -21.609440 165 164 173
1.365600 2.716698 -21.609440 164 166 174
1.350675 2.716698 -21.609440 165 167 175
1.335750 2.716698 -21.609440 165 168 173
12.504113 28.274765 -224.906021 159 161 171
10.688435 24.473116 -194.666550 159 160 170
9.303139 21.572598 -171.594971 158 159 169
0.308779 2.742280 -21.812920 153 160 169
0.575975 5.992388 -47.665268 155 159 170
0.525744 5.801396 -46.146057 155 159 170
0.478617 5.622202 -44.720695 156 160 171
0.434314 5.453747 -43.380749 154 160 171
0.392588 5.295092 -42.118763 154 163 172
-0.193561 3.062356 -24.358906 166 172 179
-0.206904 3.011686 -23.955864 163 169 176
-0.219590 2.959655 -23.541992 157 162 171
-0.232076 2.912301 -23.165319 159 164 173
-0.244170 2.866438 -22.800512 161 165 176
-0.255888 2.821997 -22.447016 156 162 173
-0.267248 2.778913 -22.104313 160 166 177
-0.278529 2.739700 -21.792398 160 164 175
-0.306041 2.716698 -21.609440 161 164 172
-0.320967 2.716698 -21.609440 159 163 168
-0.335892 2.716698 -21.609440 160 165 168
14.546754 5.781040 -46.238163 0 0 0
10.805857 4.322837 -34.575104 1 1 1
10.686277 4.284469 -34.268227 2 0 0
10.599888 4.259266 -34.066647 2 0 0
6.276048 2.701773 -21.609440 25 24 20
6.246198 2.701773 -21.609440 27 24 20
5.902914 2.701773 -21.609440 34 31 27
7.979625 3.670850 -29.360355 36 33 29
7.465940 3.452087 -27.610632 38 35 31
7.350499 3.407413 -27.253319 38 35 31
7.263314 3.375642 -26.999208 39 35 30
7.219424 3.363880 -26.905134 38 34 29
7.747378 3.656945 -29.249142 71 61 54
7.698018 3.643146 -29.138767 86 73 65
7.656035 3.661569 -29.286119 139 112 102
7.597388 3.643146 -29.138767 159 133 121
20.661806 9.987244 -79.880417 132 116 109
6.729150 3.485320 -27.876438 19 20 18
6.653847 3.456206 -27.643579 27 23 22
6.626846 3.452087 -27.610632 134 124 124
6.607776 3.452087 -27.610632 216 202 203
6.580862 3.447977 -27.577763 230 218 218
6.515276 3.423523 -27.382175 237 227 227
6.443053 3.395429 -27.157469 234 229 230
6.454563 3.411426 -27.285418 227 225 225
6.383089 3.383529 -27.062290 225 220 222
6.290905 3.344458 -26.749792 226 219 222
6.215016 3.313845 -26.504944 229 222 225
6.119688 3.272656 -26.175503 228 223 224
6.067330 3.254271 -26.028450 204 202 201
6.995803 3.951297 -31.603437 157 149 149
6.926726 3.924527 -31.389322 165 157 157
6.125677 3.571271 -28.563896 175 170 169
17.801235 11.054584 -88.417252 179 171 171
17.473398 10.888349 -87.087669 183 175 175
17.029131 10.648165 -85.166618 175 169 170
55.560596 39.675354 -317.333160 168 163 164
53.156891 38.109222 -304.806854 171 166 168
47.373806 45.254700 -361.958130 243 245 246
47.123806 45.254700 -361.958130 246 248 249
46.873806 45.254700 -361.958130 248 247 249
46.623806 45.254700 -361.958130 243 245 246
13.487554 13.991791 -111.909760 227 230 235
11.794545 12.377354 -98.997093 231 236 237
11.109002 11.725914 -93.786720 226 231 234
10.573347 11.225972 -89.788063 222 227 230
10.157017 10.847569 -86.761497 227 230 234
9.594034 10.307120 -82.438866 225 228 232
9.023312 9.751855 -77.997711 220 223 228
2.470773 3.375642 -26.999208 171 175 180
2.348620 3.257931 -26.057728 166 170 175
2.297033 3.210976 -25.682173 170 174 179
2.259257 3.182748 -25.456396 168 172 177
1.440227 2.701773 -21.609440 151 155 160
1.410377 2.701773 -21.609440 151 155 160
1.395451 2.701773 -21.609440 152 154 162
1.380526 2.701773 -21.609440 151 153 161
1.365600 2.701773 -21.609440 155 157 165
1.350675 2.701773 -21.609440 156 158 166
20.873808 45.254700 -361.958130 155 158 166
20.623808 45.254700 -361.958130 152 155 163
15.161903 33.677917 -269.364197 153 156 164
12.626703 28.395105 -227.110977 150 153 161
10.779015 24.544922 -196.316269 153 155 165
9.372565 21.614185 -172.875519 151 153 163
0.575975 5.959466 -47.665268 140 147 156
0.525744 5.769524 -46.146057 141 148 157
0.478617 5.591314 -44.720695 140 147 156
0.434314 5.423784 -43.380749 142 149 158
0.392588 5.266001 -42.118763 138 147 157
0.353222 5.117139 -40.928127 143 152 161
0.316020 4.976462 -39.802956 144 153 162
0.280809 4.843312 -38.737995 139 148 157
0.247836 4.724797 -37.790081 140 150 157
0.216095 4.604612 -36.828808 139 149 156
0.185928 4.490389 -35.915226 139 147 154
0.157222 4.381696 -35.045872 143 151 158
0.129681 4.271830 -34.167141 139 147 154
0.103636 4.173344 -33.379425 141 149 156
0.078766 4.079297 -32.627213 138 147 156
0.054991 3.989395 -31.908155 141 150 159
0.032242 3.903370 -31.220108 142 151 161
0.010467 3.826025 -30.601480 140 149 159
-0.010448 3.746832 -29.968073 143 151 164
-0.030476 3.666203 -29.323191 145 154 164
-0.049722 3.593425 -28.741093 146 155 164
-0.068219 3.523480 -28.181654 147 157 164
-0.086010 3.456206 -27.643579 147 154 163
-0.103134 3.391453 -27.125668 150 157 166
-0.119766 3.332912 -26.657446 148 156 163
-0.135679 3.272656 -26.175503 149 157 164
-0.151028 3.214540 -25.710678 152 157 166
-0.165841 3.158452 -25.262072 152 157 166
-0.180146 3.104288 -24.828854 149 154 163
-0.193969 3.051950 -24.410242 146 151 160
-0.207118 2.998241 -23.980663 144 151 160
-0.220037 2.949390 -23.589939 145 152 161
-0.232541 2.902105 -23.211744 144 151 160
-0.244651 2.856313 -22.845484 142 149 158
-0.256385 2.811943 -22.490602 141 148 157
-0.267759 2.768930 -22.146578 147 154 163
-0.278791 2.727214 -21.812920 149 155 162
-0.306041 2.701773 -21.609440 146 152 157
-0.320967 2.701773 -21.609440 150 157 160
-0.335892 2.701773 -21.609440 145 152 155
15.028650 5.926545 -47.665268 0 0 0
14.575848 5.760602 -46.330639 0 0 0
10.805857 4.298956 -34.575104 0 0 0
10.686277 4.260800 -34.268227 3 1 1
10.599888 4.235736 -34.066647 4 2 2
6.276048 2.686848 -21.609440 27 26 22
6.246198 2.686848 -21.609440 28 25 21
5.990485 2.719831 -21.874712 24 23 19
5.902914 2.686848 -21.609440 34 31 27
7.969524 3.645950 -29.323191 37 34 30
7.457052 3.428930 -27.577763 38 35 31
7.333244 3.380635 -27.189342 36 33 29
7.254859 3.353086 -26.967777 42 38 33
7.161202 3.318319 -26.688156 39 35 30
7.739579 3.604882 -28.992891 45 39 34
7.729228 3.609400 -29.029224 45 37 30
7.728548 3.618468 -29.102161 54 46 39
7.669077 3.609400 -29.029224 88 74 68
21.767839 10.435872 -83.932320 176 155 147
21.172876 10.177741 -81.856255 139 123 116
6.607776 3.433017 -27.610632 216 202 203
6.580862 3.428930 -27.577763 229 217 217
6.515276 3.404611 -27.382175 236 226 226
6.443053 3.376672 -27.157469 234 229 230
6.439394 3.384607 -27.221292 230 225 226
6.383089 3.364837 -27.062290 227 220 223
6.320097 3.341416 -26.873922 230 223 226
6.236423 3.306890 -26.596235 226 219 222
6.210922 3.303097 -26.565735 231 226 228
6.115429 3.261949 -26.234791 203 201 201
6.920275 3.887046 -31.262241 170 165 166
6.880113 3.876582 -31.178089 165 158 161
6.206630 3.586925 -28.848469 180 178 178
6.133239 3.555927 -28.599161 170 168 168
17.666378 10.910231 -87.747429 197 191 192
17.407955 10.787643 -86.761497 200 194 195
16.782333 10.435872 -83.932320 198 191 194
6.243518 4.079746 -32.812069 221 218 220
6.194533 4.062483 -32.673229 219 216 218
6.171966 4.062483 -32.673229 222 221 225
6.175529 4.079746 -32.812069 222 221 225
55.560596 39.456177 -317.333160 231 230 234
55.341419 39.456177 -317.333160 236 232 237
47.123806 45.004700 -361.958130 192 191 195
46.873806 45.004700 -361.958130 184 182 188
46.623806 45.004700 -361.958130 184 182 188
13.487554 13.914496 -111.909760 171 173 181
11.794545 12.308978 -98.997093 174 178 183
11.109002 11.661137 -93.786720 168 172 177
10.614489 11.207397 -90.137436 167 171 176
10.195202 10.828198 -87.087669 170 173 181
9.628299 10.286789 -82.733284 166 168 176
9.053796 9.730746 -78.261215 169 171 179
2.473656 3.360911 -27.030712 151 154 162
2.351265 3.243582 -26.087072 153 156 164
2.304698 3.203894 -25.767876 149 152 160
2.279294 3.193238 -25.682173 148 151 159
2.264066 3.196782 -25.710678 152 155 163
2.238854 3.186173 -25.625355 147 150 158
1.440227 2.686848 -21.609440 122 125 133
1.425302 2.686848 -21.609440 117 121 126
1.410377 2.686848 -21.609440 121 125 130
1.395451 2.686848 -21.609440 119 121 129
1.380526 2.686848 -21.609440 116 118 126
1.365600 2.686848 -21.609440 120 122 130
1.350675 2.686848 -21.609440 120 122 130
21.123808 45.004700 -361.958130 122 126 131
20.873808 45.004700 -361.958130 124 127 135
20.623808 45.004700 -361.958130 121 124 132
15.340279 33.885891 -272.533173 124 127 135
12.751719 28.517830 -229.359604 121 124 132
10.871142 24.617956 -197.994186 125 127 137
9.443035 21.656397 -174.175339 121 123 133
0.577162 5.938765 -47.763546 195 203 210
0.525744 5.737651 -46.146057 197 204 213
0.478617 5.560426 -44.720695 196 203 212
0.435129 5.403942 -43.462139 202 208 219
0.393304 5.246449 -42.195484 201 210 220
0.353847 5.097878 -41.000568 201 210 220
0.316564 4.957489 -39.871464 200 209 218
0.281279 4.824625 -38.802883 203 212 221
0.247836 4.698696 -37.790081 202 211 220
0.216439 4.586466 -36.887451 202 211 220
0.186217 4.472517 -35.970993 211 218 227
0.157222 4.357490 -35.045872 204 211 220
0.129872 4.254506 -34.217609 209 216 225
0.103786 4.156278 -33.427589 207 214 223
0.078766 4.056762 -32.627213 205 214 223
0.055067 3.972829 -31.952166 209 218 228
0.032286 3.887046 -31.262241 211 220 230
0.010467 3.804889 -30.601480 210 219 229
-0.010448 3.726133 -29.968073 211 219 232
-0.030515 3.650571 -29.360355 212 221 231
-0.049784 3.578013 -28.776796 212 222 229
-0.068219 3.504015 -28.181654 215 226 230
-0.086010 3.437113 -27.643579 220 229 233
-0.103255 3.376672 -27.157469 218 226 233
-0.119766 3.314500 -26.657446 217 225 232
-0.135679 3.254577 -26.175503 220 228 235
-0.151196 3.200334 -25.739244 223 228 237
-0.166022 3.144433 -25.289652 225 230 239
-0.180339 3.090451 -24.855494 226 231 240
-0.194173 3.038292 -24.435991 220 225 234
-0.207333 2.984768 -24.005514 221 228 237
-0.220037 2.933096 -23.589939 223 230 239
-0.232775 2.888968 -23.235025 221 229 236
-0.244893 2.843337 -22.868036 222 230 237
-0.256634 2.799126 -22.512459 223 231 238
-0.268016 2.756269 -22.167770 223 231 238
-0.279054 2.714704 -21.833479 227 233 240
-0.306041 2.686848 -21.609440 229 235 240
-0.320967 2.686848 -21.609440 229 235 240
-0.335892 2.686848 -21.609440 231 238 241
-0.350817 2.686848 -21.609440 227 234 237
15.059637 5.905775 -47.763546 0 0 0
14.605058 5.740082 -46.423489 0 0 0
10.805857 4.275076 -34.575104 0 0 0
10.702109 4.243409 -34.318993 2 0 0
6.246198 2.671922 -21.609440 29 25 24
6.091881 2.743583 -22.189005 17 16 12
5.996147 2.707279 -21.895388 25 24 20
5.902914 2.671922 -21.609440 34 31 27
5.887989 2.671922 -21.609440 38 33 30
7.949399 3.616541 -29.249142 37 32 29
7.448185 3.405827 -27.544971 38 33 30
7.316070 3.353982 -27.125668 39 34 31
7.238007 3.326714 -26.905134 40 35 32
7.152962 3.296088 -26.657446 39 34 31
7.118167 3.288520 -26.596235 42 38 33
23.292015 11.016541 -89.097389 139 112 102
23.230476 11.016541 -89.097389 158 132 120
22.992075 10.932446 -88.417252 170 146 134
22.501587 10.727718 -86.761497 176 155 147
21.631495 10.340436 -83.629318 139 123 116
21.573732 10.340436 -83.629318 48 38 31
11.051233 5.660674 -45.781265 21 19 18
10.933184 5.616276 -45.422195 27 22 21
6.607776 3.413946 -27.610632 218 205 203
6.580862 3.409882 -27.577763 226 214 214
6.515276 3.385698 -27.382175 232 222 222
6.443053 3.357914 -27.157469 234 228 229
6.439394 3.365806 -27.221292 231 226 227
6.383089 3.346146 -27.062290 234 227 230
17.278526 10.647959 -86.116432 242 238 243
6.270162 4.074397 -32.952091 232 229 231
63.623806 44.754700 -361.958130 206 205 209
55.560596 39.236996 -317.333160 205 203 209
9.344706 8.302321 -67.145859 152 155 160
8.812977 7.868958 -63.640991 150 153 158
8.377752 7.517850 -60.801365 150 149 158
7.999807 7.214863 -58.350933 151 151 157
7.651147 6.935353 -56.090363 150 149 158
7.328493 6.676692 -53.998417 150 149 158
7.029042 6.436631 -52.056900 153 152 161
6.750377 6.213234 -50.250153 151 150 159
6.490406 6.004823 -48.564613 152 151 160
6.247310 5.809941 -46.988480 148 148 154
6.019496 5.627310 -45.511436 149 148 157
5.805569 5.455811 -44.124420 147 147 153
46.373806 44.754700 -361.958130 150 147 156
12.282847 12.673897 -102.501419 147 150 158
11.794545 12.240602 -98.997093 144 150 157
11.154160 11.643499 -94.167969 143 149 156
10.739857 11.276774 -91.202049 145 151 158
10.272438 10.849625 -87.747429 148 153 162
9.767839 10.377901 -83.932320 145 147 157
9.177820 9.809249 -79.333290 143 145 155
4.376600 5.740082 -46.423489 127 129 139
4.267566 5.638387 -45.601025 125 127 137
1.425302 2.671922 -21.609440 166 169 174
1.410377 2.671922 -21.609440 167 170 175
1.395451 2.671922 -21.609440 169 173 178
1.380526 2.671922 -21.609440 169 173 178
1.365600 2.671922 -21.609440 170 174 179
1.350675 2.671922 -21.609440 173 177 182
20.623808 44.754700 -361.958130 192 198 205
15.522902 34.098820 -275.777618 195 198 206
12.751719 28.359413 -229.359604 198 201 209
10.871142 24.481203 -197.994186 199 202 210
9.443035 21.536097 -174.175339 202 205 213
3.283715 8.840434 -71.497902 214 220 227
3.082129 8.424414 -68.133293 214 220 227
2.898662 8.045789 -65.071121 217 223 230
1.686506 5.540234 -44.807198 226 230 235
1.605861 5.373923 -43.462139 229 233 238
1.529916 5.217306 -42.195484 228 234 239
1.458272 5.069559 -41.000568 228 234 239
1.392972 4.938450 -39.940208 229 235 240
1.328731 4.805874 -38.867989 232 237 240
1.267849 4.680230 -37.851830 233 238 241
1.210070 4.560988 -36.887451 235 238 242
1.155161 4.447672 -35.970993 234 237 242
0.577162 5.905775 -47.763546 224 231 240
0.525744 5.705779 -46.146057 224 230 241
0.479543 5.540234 -44.807198 224 228 239
0.435947 5.384024 -43.543835 222 228 239
0.394021 5.226826 -42.272484 218 227 237
0.354475 5.078547 -41.073261 218 227 237
0.317110 4.938450 -39.940208 217 226 236
0.281751 4.805874 -38.867989 214 223 233
0.248241 4.680230 -37.851830 214 220 231
0.216784 4.568263 -36.946285 214 220 231
0.186506 4.454589 -36.026936 214 220 231
0.157460 4.339849 -35.098969 213 219 230
0.130065 4.237131 -34.268227 212 218 229
0.103786 4.133190 -33.427589 211 217 228
0.078877 4.039917 -32.673229 210 216 227
0.055067 3.950760 -31.952166 210 216 227
0.032329 3.870677 -31.304487 208 217 227
0.010481 3.788758 -30.641958 208 217 227
-0.010462 3.710234 -30.006891 207 216 226
-0.030554 3.634899 -29.397615 206 215 224
-0.049846 3.562563 -28.812588 207 218 222
-0.068302 3.488795 -28.215981 206 218 220
-0.086113 3.422104 -27.676607 207 218 222
-0.103255 3.357914 -27.157469 206 216 223
-0.119904 3.299886 -26.688156 205 213 220
-0.135833 3.240159 -26.205114 206 213 222
-0.151364 3.186096 -25.767876 207 213 224
-0.166385 3.133808 -25.344990 202 208 219
-0.180727 3.079893 -24.908947 201 207 218
-0.194584 3.027802 -24.487654 202 208 219
-0.207548 2.971266 -24.030415 202 209 218
-0.220261 2.919776 -23.613987 200 207 216
-0.233008 2.875804 -23.258354 199 207 214
-0.245135 2.830337 -22.890633 198 207 211
-0.256634 2.783577 -22.512459 198 207 211
-0.268016 2.740958 -22.167770 199 208 212
-0.279317 2.702171 -21.854076 196 203 212
-0.306041 2.671922 -21.609440 195 202 211
-0.320967 2.671922 -21.609440 193 200 209
-0.335892 2.671922 -21.609440 191 198 207
-0.350817 2.671922 -21.609440 190 197 206
15.607513 6.073136 -49.393005 0 0 0
15.121996 5.897103 -47.961327 0 0 0
14.663831 5.730988 -46.610302 0 0 0
10.822009 4.257550 -34.626785 1 1 1
10.717988 4.225965 -34.369911 2 0 0
6.246198 2.656997 -21.609440 27 23 22
6.103574 2.733494 -22.231594 18 17 13
6.007504 2.697254 -21.936857 24 23 19
5.902914 2.656997 -21.609440 32 27 24
5.887989 2.656997 -21.609440 34 29 26
7.439340 3.382780 -27.512257 37 30 27
7.307513 3.331346 -27.093943 33 28 25
7.221233 3.300464 -26.842781 41 36 33
7.144740 3.273909 -26.626804 40 35 32
7.110004 3.266400 -26.565735 40 36 31
23.476629 10.955003 -89.097389 106 87 80
22.973297 10.748304 -87.416306 116 93 85
22.912920 10.748304 -87.416306 130 104 97
23.410557 11.039926 -89.788063 158 132 120
23.168938 10.955003 -89.097389 172 148 136
22.843817 10.830041 -88.081062 176 155 147
23.309505 11.169807 -90.844391 13 14 12
23.246759 11.169807 -90.844391 12 14 14
22.825960 10.997300 -89.441391 8 10 10
11.073116 5.640200 -45.871922 23 21 20
10.976228 5.606891 -45.601025 28 23 22
6.565230 3.382780 -27.512257 224 210 211
6.439394 3.347004 -27.221292 229 224 225
6.383089 3.327454 -27.062290 226 219 222
6.305468 3.296644 -26.811714 232 225 228
6.222135 3.262658 -26.535303 222 215 220
6.196709 3.258925 -26.504944 226 219 224
6.136277 3.236706 -26.324228 222 217 219
16.901541 10.357457 -84.237526 189 185 191
9.290846 8.208360 -66.758850 131 133 141
8.740936 7.761037 -63.120766 127 129 137
8.334004 7.436817 -60.483864 129 128 137
7.959708 7.138598 -58.058449 130 129 138
7.614274 6.863375 -55.820049 132 131 140
7.294486 6.608586 -53.747845 126 125 134
6.997592 6.372037 -51.823982 124 123 132
6.721217 6.151837 -50.033089 120 119 128
6.463306 5.946348 -48.361839 122 121 130
6.222068 5.754143 -46.798626 120 119 128
5.995936 5.573974 -45.333309 122 121 130
5.783536 5.404745 -43.956966 122 121 130
46.373806 44.504700 -361.958130 121 120 129
46.123806 44.504700 -361.958130 121 120 129
45.873806 44.504700 -361.958130 120 119 129
45.623806 44.504700 -361.958130 117 118 128
4.309987 5.662626 -46.054314 165 167 177
4.227748 5.595876 -45.511436 168 170 180
1.365600 2.656997 -21.609440 238 241 249
1.350675 2.656997 -21.609440 238 242 247
3.283715 8.791052 -71.497902 214 220 227
3.082129 8.377356 -68.133293 213 219 226
2.898662 8.000845 -65.071121 211 217 224
1.686506 5.509286 -44.807198 194 200 207
1.605861 5.343904 -43.462139 191 197 204
1.529916 5.188162 -42.195484 192 200 207
1.458272 5.041240 -41.000568 191 199 206
1.392972 4.910863 -39.940208 185 194 198
1.328731 4.779028 -38.867989 179 185 190
1.267849 4.654086 -37.851830 178 184 189
1.210070 4.535511 -36.887451 184 188 193
1.155161 4.422827 -35.970993 190 194 199
0.578355 5.884919 -47.862232 168 174 185
0.526794 5.685231 -46.238163 165 171 182
0.479543 5.509286 -44.807198 170 173 187
0.436768 5.364032 -43.625839 166 172 183
0.394742 5.207131 -42.349762 167 176 186
0.355104 5.059149 -41.146217 167 176 185
0.317657 4.919345 -40.009190 166 175 184
0.282225 4.787060 -38.933311 165 174 184
0.249055 4.669345 -37.975933 167 173 184
0.217130 4.550001 -37.005302 168 174 187
0.186797 4.436605 -36.083054 168 174 187
0.157939 4.328724 -35.205654 168 174 187
0.130257 4.219705 -34.318993 165 171 184
0.103936 4.116042 -33.475895 165 171 182
0.078988 4.023024 -32.719379 164 170 181
0.055219 3.939559 -32.040554 165 171 182
0.032373 3.854264 -31.346848 164 173 183
0.010495 3.772584 -30.682543 165 174 183
-0.010475 3.694294 -30.045811 165 174 183
-0.030593 3.619188 -29.434969 165 175 182
-0.049908 3.547075 -28.848469 167 178 182
-0.068386 3.473537 -28.250391 165 176 180
-0.086113 3.402988 -27.676607 164 175 179
-0.103376 3.343076 -27.189342 163 173 180
-0.120042 3.285237 -26.718939 162 169 178
-0.136141 3.229366 -26.264536 164 171 180
-0.151702 3.175363 -25.825329 166 172 183
-0.207764 2.957737 -24.055368 167 173 184
-0.220486 2.906429 -23.638083 166 173 182
-0.233243 2.862614 -23.281729 165 173 180
-0.245377 2.817310 -22.913275 165 173 180
-0.257134 2.773418 -22.556301 166 175 179
-0.268530 2.730873 -22.210278 167 175 182
-0.279581 2.689614 -21.874712 166 172 183
-0.306041 2.656997 -21.609440 167 173 184
-0.320967 2.656997 -21.609440 167 173 184
-0.335892 2.656997 -21.609440 166 172 183
-0.350817 2.656997 -21.609440 165 171 182
15.674356 6.064884 -49.604542 0 0 0
15.184873 5.888359 -48.160748 0 0 0
14.693395 5.710284 -46.704273 0 0 0
10.822009 4.233634 -34.626785 0 0 0
10.733913 4.208471 -34.420982 2 0 0
6.246198 2.642072 -21.609440 26 23 19
6.115311 2.723366 -22.274347 14 13 9
6.018903 2.687192 -21.978483 23 23 17
5.902914 2.642072 -21.609440 34 29 26
5.887989 2.642072 -21.609440 34 29 26
7.602813 3.428936 -28.045181 37 30 27
7.421710 3.355807 -27.447062 38 31 28
7.290460 3.304902 -27.030712 36 29 26
7.204536 3.274336 -26.780718 37 32 29
7.128353 3.248051 -26.565735 39 34 31
7.093734 3.240619 -26.504944 37 33 28
7.075428 3.240619 -26.504944 42 36 31
7.097726 3.259264 -26.657446 44 35 31
23.297419 10.810308 -88.417252 105 86 79
22.886932 10.647747 -87.087669 118 95 87
22.912920 10.687927 -87.416306 127 101 94
23.873217 11.194864 -91.562531 152 126 114
23.809975 11.194864 -91.562531 170 146 134
