ply
format ascii 1.0
element vertex 1092
property float x
property float y
property float z
property uchar red
property uchar green
property uchar blue
end_header
31.331560 -12.878454 -621.167847 197 198 196
5.659285 -4.205210 -202.830322 186 189 187
5.577652 -4.205210 -202.830322 187 187 187
5.496020 -4.205210 -202.830322 192 190 190
5.386903 -4.183863 -201.800720 176 168 168
5.332754 -4.205210 -202.830322 90 73 70
5.251122 -4.205210 -202.830322 84 49 45
5.143248 -4.183863 -201.800720 107 75 70
5.062030 -4.183863 -201.800720 162 150 144
4.980812 -4.183863 -201.800720 195 195 189
4.924591 -4.205210 -202.830322 185 186 184
4.842958 -4.205210 -202.830322 188 190 190
4.586631 -4.270576 -205.983124 188 189 187
1.437893 -1.471823 -70.990608 187 187 187
1.409321 -1.471823 -70.990608 187 187 187
5.081560 -12.878454 -621.167847 131 137 142
4.831560 -12.878454 -621.167847 118 124 129
4.581560 -12.878454 -621.167847 55 62 65
-0.019250 -1.471823 -70.990608 137 142 145
-0.047822 -1.471823 -70.990608 138 143 146
-0.076393 -1.471823 -70.990608 138 143 146
-0.104965 -1.471823 -70.990608 137 142 145
-0.133536 -1.471823 -70.990608 138 141 145
-0.190679 -1.471823 -70.990608 140 141 145
-5.351076 -2.684759 -129.494278 80 76 75
-5.403193 -2.684759 -129.494278 71 66 67
-5.455310 -2.684759 -129.494278 63 61 61
-5.525425 -2.693533 -129.917465 70 68 68
-5.577713 -2.693533 -129.917465 154 152 152
-5.697338 -2.676042 -129.073837 173 173 173
-5.675578 -2.641734 -127.419044 174 174 174
-5.726860 -2.641734 -127.419044 172 172 172
-5.778141 -2.641734 -127.419044 171 171 171
-7.166989 -2.341537 -112.939606 181 176 178
-8.826774 -2.633294 -127.011955 181 182 180
-8.877892 -2.633294 -127.011955 176 176 176
-8.929010 -2.633294 -127.011955 178 181 186
-8.980128 -2.633294 -127.011955 148 157 171
-9.031247 -2.633294 -127.011955 95 108 134
-9.082365 -2.633294 -127.011955 79 95 132
-9.133483 -2.633294 -127.011955 83 102 140
-9.184602 -2.633294 -127.011955 84 101 134
-9.235720 -2.633294 -127.011955 127 141 164
-9.286838 -2.633294 -127.011955 170 177 186
-9.337956 -2.633294 -127.011955 173 175 176
-9.389074 -2.633294 -127.011955 181 176 177
-9.481842 -2.616575 -126.205528 181 176 177
-9.502469 -2.608294 -125.806145 177 177 177
-9.463261 -2.583765 -124.623016 178 180 180
-9.280674 -2.520554 -121.574135 178 181 179
-5.904965 -1.471823 -70.990608 180 182 182
-52.418442 -12.878454 -621.167847 181 180 182
-52.668442 -12.878454 -621.167847 185 180 182
-52.918442 -12.878454 -621.167847 189 180 183
-53.668442 -12.878454 -621.167847 181 180 182
-53.918442 -12.878454 -621.167847 180 180 180
-54.168442 -12.878454 -621.167847 181 181 181
-54.418442 -12.878454 -621.167847 182 182 182
-54.668442 -12.878454 -621.167847 182 182 182
-9.019251 -1.471823 -70.990608 177 178 176
-83.668442 -12.878454 -621.167847 180 181 179
-83.918442 -12.878454 -621.167847 180 181 179
-105.668442 -12.878454 -621.167847 185 185 185
-105.918442 -12.878454 -621.167847 186 187 185
-106.918442 -12.878454 -621.167847 185 186 184
5.752178 -1.500395 -70.990608 145 151 158
5.723607 -1.500395 -70.990608 143 149 156
5.695035 -1.500395 -70.990608 143 149 156
5.666464 -1.500395 -70.990608 144 150 157
5.066464 -1.500395 -70.990608 142 145 153
5.037892 -1.500395 -70.990608 142 145 153
5.009321 -1.500395 -70.990608 142 145 153
43.331558 -13.128454 -621.167847 145 147 157
43.081558 -13.128454 -621.167847 145 147 157
42.831558 -13.128454 -621.167847 144 146 156
42.581558 -13.128454 -621.167847 145 148 156
42.331558 -13.128454 -621.167847 145 148 156
42.081558 -13.128454 -621.167847 145 148 156
41.831558 -13.128454 -621.167847 143 149 156
33.581558 -13.128454 -621.167847 201 196 195
33.331558 -13.128454 -621.167847 199 199 199
33.081558 -13.128454 -621.167847 196 199 197
32.581558 -13.128454 -621.167847 196 201 200
32.331558 -13.128454 -621.167847 194 199 198
32.081558 -13.128454 -621.167847 195 197 197
31.831560 -13.128454 -621.167847 196 198 198
31.581560 -13.128454 -621.167847 198 199 197
31.331560 -13.128454 -621.167847 199 200 198
5.630558 -4.265081 -201.800720 187 190 188
5.549339 -4.265081 -201.800720 187 187 187
5.468121 -4.265081 -201.800720 193 191 190
5.386903 -4.265081 -201.800720 177 169 169
5.305685 -4.265081 -201.800720 93 76 73
5.224466 -4.265081 -201.800720 86 51 47
5.143248 -4.265081 -201.800720 106 74 68
5.062030 -4.265081 -201.800720 160 148 142
4.980812 -4.265081 -201.800720 195 195 189
4.899593 -4.265081 -201.800720 186 187 185
4.818375 -4.265081 -201.800720 188 190 190
4.586631 -4.353477 -205.983124 188 189 187
1.466464 -1.500395 -70.990608 188 189 187
1.437893 -1.500395 -70.990608 187 187 187
5.331560 -13.128454 -621.167847 129 135 142
5.081560 -13.128454 -621.167847 129 135 140
4.831560 -13.128454 -621.167847 114 120 125
4.581560 -13.128454 -621.167847 50 57 60
4.331560 -13.128454 -621.167847 25 32 35
-0.019250 -1.500395 -70.990608 137 142 145
-0.047822 -1.500395 -70.990608 138 143 146
-0.076393 -1.500395 -70.990608 137 142 145
-0.104965 -1.500395 -70.990608 137 142 145
-0.133536 -1.500395 -70.990608 138 141 145
-0.190679 -1.500395 -70.990608 140 141 145
-5.455310 -2.736876 -129.494278 60 55 56
-5.507427 -2.736876 -129.494278 63 61 61
-5.559545 -2.736876 -129.494278 155 153 153
-5.678900 -2.719162 -128.656128 172 172 172
-5.675578 -2.693016 -127.419044 172 172 172
-5.726860 -2.693016 -127.419044 172 172 172
-5.778141 -2.693016 -127.419044 172 172 172
-4.483626 -1.673747 -79.192711 176 178 178
-4.854654 -1.714737 -81.132126 163 120 123
-7.166989 -2.386992 -112.939606 181 176 178
-8.889256 -2.719162 -128.656128 178 179 177
-8.826774 -2.684412 -127.011955 179 180 178
-8.877892 -2.684412 -127.011955 178 178 178
-8.929010 -2.684412 -127.011955 179 182 187
-8.980128 -2.684412 -127.011955 148 157 171
-9.031247 -2.684412 -127.011955 95 108 134
-9.082365 -2.684412 -127.011955 79 95 132
-9.133483 -2.684412 -127.011955 82 101 139
-9.184602 -2.684412 -127.011955 82 98 134
-9.235720 -2.684412 -127.011955 124 138 161
-9.286838 -2.684412 -127.011955 171 178 187
-9.337956 -2.684412 -127.011955 174 176 177
-9.389074 -2.684412 -127.011955 180 178 178
-9.440192 -2.684412 -127.011955 183 178 179
-9.481842 -2.667368 -126.205528 179 177 177
-9.502469 -2.658927 -125.806145 177 177 177
-9.463261 -2.633922 -124.623016 177 179 179
-9.280674 -2.569483 -121.574135 180 181 179
-52.668442 -13.128454 -621.167847 184 181 183
-52.918442 -13.128454 -621.167847 187 180 183
-53.668442 -13.128454 -621.167847 183 182 184
-53.918442 -13.128454 -621.167847 182 182 182
-54.168442 -13.128454 -621.167847 181 181 181
-54.418442 -13.128454 -621.167847 184 184 184
-54.668442 -13.128454 -621.167847 183 183 183
-9.019251 -1.500395 -70.990608 178 179 177
-83.668442 -13.128454 -621.167847 180 181 179
-83.918442 -13.128454 -621.167847 180 181 179
-11.019251 -1.500395 -70.990608 183 184 182
-105.668442 -13.128454 -621.167847 185 185 185
-105.918442 -13.128454 -621.167847 186 187 185
-106.168442 -13.128454 -621.167847 185 186 184
-106.418442 -13.128454 -621.167847 185 186 184
-106.668442 -13.128454 -621.167847 185 186 184
-106.918442 -13.128454 -621.167847 185 186 184
5.752178 -1.528966 -70.990608 145 150 159
5.723607 -1.528966 -70.990608 144 150 157
5.695035 -1.528966 -70.990608 144 150 157
5.666464 -1.528966 -70.990608 146 152 157
5.037892 -1.528966 -70.990608 144 147 155
5.009321 -1.528966 -70.990608 143 146 154
43.081558 -13.378454 -621.167847 147 150 158
42.831558 -13.378454 -621.167847 147 150 158
42.581558 -13.378454 -621.167847 146 148 156
42.331558 -13.378454 -621.167847 145 148 156
42.081558 -13.378454 -621.167847 145 148 156
41.831558 -13.378454 -621.167847 145 148 156
33.581558 -13.378454 -621.167847 199 193 194
33.331558 -13.378454 -621.167847 198 198 198
33.081558 -13.378454 -621.167847 196 199 197
32.831558 -13.378454 -621.167847 194 199 197
32.581558 -13.378454 -621.167847 197 199 199
32.331558 -13.378454 -621.167847 196 198 198
32.081558 -13.378454 -621.167847 198 198 198
31.831560 -13.378454 -621.167847 199 199 199
31.581560 -13.378454 -621.167847 199 200 198
31.331560 -13.378454 -621.167847 199 200 198
5.602120 -4.324349 -200.781525 185 188 186
5.521312 -4.324349 -200.781525 184 184 184
5.440504 -4.324349 -200.781525 192 188 187
5.359696 -4.324349 -200.781525 175 167 167
5.278888 -4.324349 -200.781525 96 79 76
5.198080 -4.324349 -200.781525 88 53 49
5.117272 -4.324349 -200.781525 103 71 65
5.036464 -4.324349 -200.781525 159 147 141
4.955656 -4.324349 -200.781525 196 196 190
4.899593 -4.346300 -201.800720 188 189 187
4.818375 -4.346300 -201.800720 188 190 190
4.586631 -4.436378 -205.983124 189 190 188
1.466464 -1.528966 -70.990608 189 190 188
1.437893 -1.528966 -70.990608 187 188 186
1.409321 -1.528966 -70.990608 187 188 186
5.331560 -13.378454 -621.167847 129 135 142
5.081560 -13.378454 -621.167847 129 135 140
4.831560 -13.378454 -621.167847 113 119 124
4.581560 -13.378454 -621.167847 51 56 59
4.331560 -13.378454 -621.167847 27 32 35
4.081560 -13.378454 -621.167847 31 35 36
0.009321 -1.528966 -70.990608 137 140 144
-0.019250 -1.528966 -70.990608 137 140 144
-0.047822 -1.528966 -70.990608 138 141 145
-0.076393 -1.528966 -70.990608 137 140 144
-0.104965 -1.528966 -70.990608 138 141 145
-0.133536 -1.528966 -70.990608 139 142 146
-0.162107 -1.528966 -70.990608 140 141 145
-5.575340 -2.770942 -128.656128 175 175 175
-5.678900 -2.770942 -128.656128 173 173 173
-5.675578 -2.744298 -127.419044 172 172 172
-5.726860 -2.744298 -127.419044 173 173 173
-5.778141 -2.744298 -127.419044 174 174 174
-4.483626 -1.705620 -79.192711 175 177 177
-4.588624 -1.733241 -80.475189 177 177 177
-4.672318 -1.740287 -80.802322 177 177 177
-4.704838 -1.740287 -80.802322 177 177 177
-4.737358 -1.740287 -80.802322 178 176 175
-4.822001 -1.747390 -81.132126 189 168 170
-4.854654 -1.747390 -81.132126 163 120 123
-4.887307 -1.747390 -81.132126 155 81 87
-8.889256 -2.770942 -128.656128 178 179 177
-8.798663 -2.726819 -126.607460 177 178 176
-8.877892 -2.735531 -127.011955 175 177 177
-8.929010 -2.735531 -127.011955 177 181 186
-8.980128 -2.735531 -127.011955 147 156 170
-9.031247 -2.735531 -127.011955 96 109 135
-9.082365 -2.735531 -127.011955 80 96 133
-9.133483 -2.735531 -127.011955 82 101 139
-9.184602 -2.735531 -127.011955 81 97 133
-9.235720 -2.735531 -127.011955 123 137 160
-9.286838 -2.735531 -127.011955 172 177 186
-9.337956 -2.735531 -127.011955 174 176 177
-9.389074 -2.735531 -127.011955 181 179 179
-9.440192 -2.735531 -127.011955 180 178 178
-9.431048 -2.718162 -126.205528 177 177 177
-9.481842 -2.718162 -126.205528 178 178 178
-9.502469 -2.709560 -125.806145 175 177 177
-9.463261 -2.684079 -124.623016 177 177 177
-9.280674 -2.618413 -121.574135 182 180 179
-11.919622 -3.243262 -150.586151 175 180 178
-11.980228 -3.243262 -150.586151 176 181 179
-52.668442 -13.378454 -621.167847 182 181 183
-52.918442 -13.378454 -621.167847 185 182 184
-53.668442 -13.378454 -621.167847 183 185 185
-53.918442 -13.378454 -621.167847 183 183 183
-54.168442 -13.378454 -621.167847 183 183 183
-54.418442 -13.378454 -621.167847 185 186 184
-54.668442 -13.378454 -621.167847 183 184 182
-9.019251 -1.528966 -70.990608 179 180 178
-83.668442 -13.378454 -621.167847 180 181 179
-83.918442 -13.378454 -621.167847 180 181 179
-10.990679 -1.528966 -70.990608 183 184 182
-11.019251 -1.528966 -70.990608 183 184 182
-105.668442 -13.378454 -621.167847 184 185 183
-105.918442 -13.378454 -621.167847 185 186 184
-106.168442 -13.378454 -621.167847 184 185 183
-106.418442 -13.378454 -621.167847 184 185 183
-106.668442 -13.378454 -621.167847 185 186 184
-106.918442 -13.378454 -621.167847 185 186 184
-107.168442 -13.378454 -621.167847 184 185 183
5.752178 -1.557538 -70.990608 147 152 161
5.723607 -1.557538 -70.990608 146 152 159
5.695035 -1.557538 -70.990608 146 152 159
5.037892 -1.557538 -70.990608 143 146 154
5.009321 -1.557538 -70.990608 142 145 153
43.081558 -13.628454 -621.167847 145 148 156
42.331558 -13.628454 -621.167847 146 148 156
42.081558 -13.628454 -621.167847 144 147 155
41.831558 -13.628454 -621.167847 143 146 154
33.581558 -13.628454 -621.167847 198 192 193
33.331558 -13.628454 -621.167847 198 198 198
33.081558 -13.628454 -621.167847 196 198 198
32.831558 -13.628454 -621.167847 195 200 198
32.581558 -13.628454 -621.167847 196 198 198
32.331558 -13.628454 -621.167847 196 198 198
32.081558 -13.628454 -621.167847 198 198 198
31.831560 -13.628454 -621.167847 199 199 199
31.581560 -13.628454 -621.167847 200 201 199
31.331560 -13.628454 -621.167847 199 200 198
5.602120 -4.405157 -200.781525 185 188 186
5.521312 -4.405157 -200.781525 187 185 185
5.440504 -4.405157 -200.781525 192 188 187
5.332763 -4.383020 -199.772568 168 161 158
5.278888 -4.405157 -200.781525 90 73 70
5.198080 -4.405157 -200.781525 85 50 46
5.117272 -4.405157 -200.781525 108 76 70
5.036464 -4.405157 -200.781525 165 153 147
4.955656 -4.405157 -200.781525 196 196 190
4.874848 -4.405157 -200.781525 186 187 185
4.794040 -4.405157 -200.781525 188 190 190
4.586631 -4.519280 -205.983124 190 191 189
1.466464 -1.557538 -70.990608 190 191 189
1.437893 -1.557538 -70.990608 189 190 188
5.581560 -13.628454 -621.167847 131 137 144
5.331560 -13.628454 -621.167847 129 135 142
5.081560 -13.628454 -621.167847 129 135 140
4.831560 -13.628454 -621.167847 116 120 125
4.581560 -13.628454 -621.167847 47 52 55
4.331560 -13.628454 -621.167847 23 28 31
4.081560 -13.628454 -621.167847 28 32 33
3.831560 -13.628454 -621.167847 28 32 33
3.581560 -13.628454 -621.167847 31 32 36
0.009321 -1.557538 -70.990608 137 140 144
-0.019250 -1.557538 -70.990608 137 140 144
-0.047822 -1.557538 -70.990608 137 140 144
-0.076393 -1.557538 -70.990608 137 140 144
-0.104965 -1.557538 -70.990608 139 142 146
-0.133536 -1.557538 -70.990608 140 143 147
-5.420001 -2.822722 -128.656128 65 60 61
-5.471780 -2.822722 -128.656128 63 61 61
-5.523561 -2.822722 -128.656128 156 154 154
-5.575340 -2.822722 -128.656128 174 174 174
-5.627120 -2.822722 -128.656128 175 175 175
-5.678900 -2.822722 -128.656128 176 176 176
-5.657444 -2.786649 -127.011955 173 173 173
-5.708563 -2.786649 -127.011955 174 174 174
-5.778141 -2.795580 -127.419044 176 176 176
-5.829423 -2.795580 -127.419044 175 175 175
-5.937800 -2.822722 -128.656128 176 176 176
-4.483626 -1.737492 -79.192711 175 177 177
-4.588624 -1.765630 -80.475189 175 175 175
-4.621013 -1.765630 -80.475189 177 177 177
-4.672318 -1.772807 -80.802322 176 176 176
-4.704838 -1.772807 -80.802322 176 176 176
-4.727749 -1.769211 -80.638420 177 175 174
-4.822001 -1.780043 -81.132126 190 169 171
-4.844766 -1.776418 -80.966888 164 121 124
-4.887307 -1.780043 -81.132126 160 86 92
-4.909939 -1.776418 -80.966888 164 87 91
-8.889256 -2.822722 -128.656128 180 181 179
-8.798663 -2.777774 -126.607460 180 181 179
-8.877892 -2.786649 -127.011955 173 175 175
-8.929010 -2.786649 -127.011955 174 178 183
-8.980128 -2.786649 -127.011955 146 155 169
-9.031247 -2.786649 -127.011955 97 110 136
-9.082365 -2.786649 -127.011955 82 98 135
-9.133483 -2.786649 -127.011955 84 102 143
-9.184602 -2.786649 -127.011955 82 98 134
-9.235720 -2.786649 -127.011955 124 138 161
-9.286838 -2.786649 -127.011955 172 177 186
-9.337956 -2.786649 -127.011955 175 177 178
-9.389074 -2.786649 -127.011955 180 180 180
-9.440192 -2.786649 -127.011955 180 180 180
-9.431048 -2.768956 -126.205528 177 179 179
-9.481842 -2.768956 -126.205528 179 181 181
-9.502469 -2.760193 -125.806145 177 179 179
-9.463261 -2.734235 -124.623016 178 178 178
-9.280674 -2.667343 -121.574135 184 180 179
-11.919622 -3.303868 -150.586151 181 177 176
-11.980228 -3.303868 -150.586151 183 178 177
-52.668442 -13.628454 -621.167847 179 181 182
-52.918442 -13.628454 -621.167847 181 180 182
-53.918442 -13.628454 -621.167847 183 183 183
-54.168442 -13.628454 -621.167847 183 183 183
-54.418442 -13.628454 -621.167847 186 187 185
-54.668442 -13.628454 -621.167847 185 186 184
-9.019251 -1.557538 -70.990608 179 180 178
-83.668442 -13.628454 -621.167847 180 181 179
-83.918442 -13.628454 -621.167847 180 181 179
-10.990679 -1.557538 -70.990608 183 184 182
-11.019251 -1.557538 -70.990608 183 184 182
-11.047822 -1.557538 -70.990608 183 184 182
-105.668442 -13.628454 -621.167847 184 185 183
-105.918442 -13.628454 -621.167847 184 185 183
-106.168442 -13.628454 -621.167847 183 184 182
-106.418442 -13.628454 -621.167847 183 184 182
-106.668442 -13.628454 -621.167847 185 186 184
-106.918442 -13.628454 -621.167847 185 186 184
-107.168442 -13.628454 -621.167847 183 184 182
5.752178 -1.586109 -70.990608 148 150 160
5.723607 -1.586109 -70.990608 147 150 158
5.695035 -1.586109 -70.990608 147 150 158
5.009321 -1.586109 -70.990608 143 146 154
43.081558 -13.878454 -621.167847 146 149 157
42.331558 -13.878454 -621.167847 148 150 158
42.081558 -13.878454 -621.167847 144 147 155
41.831558 -13.878454 -621.167847 142 145 153
33.581558 -13.878454 -621.167847 203 195 196
33.331558 -13.878454 -621.167847 201 199 199
33.081558 -13.878454 -621.167847 194 196 196
32.831558 -13.878454 -621.167847 192 197 195
32.581558 -13.878454 -621.167847 197 199 199
32.331558 -13.878454 -621.167847 196 198 198
32.081558 -13.878454 -621.167847 198 198 198
31.831560 -13.878454 -621.167847 199 199 199
31.581560 -13.878454 -621.167847 200 201 199
31.331560 -13.878454 -621.167847 200 201 199
5.573969 -4.463422 -199.772568 185 188 186
5.493567 -4.463422 -199.772568 188 186 186
5.413165 -4.463422 -199.772568 193 189 188
5.332763 -4.463422 -199.772568 166 159 156
5.252361 -4.463422 -199.772568 88 72 66
5.171959 -4.463422 -199.772568 90 55 51
5.091557 -4.463422 -199.772568 108 76 70
5.011155 -4.463422 -199.772568 164 152 146
4.930753 -4.463422 -199.772568 190 190 184
4.850351 -4.463422 -199.772568 188 189 187
4.794040 -4.485965 -200.781525 188 190 190
4.586631 -4.602182 -205.983124 190 191 189
1.466464 -1.586109 -70.990608 190 191 189
1.437893 -1.586109 -70.990608 186 189 187
6.081560 -13.878454 -621.167847 129 133 138
5.581560 -13.878454 -621.167847 131 134 142
5.331560 -13.878454 -621.167847 130 133 141
5.081560 -13.878454 -621.167847 132 136 141
4.831560 -13.878454 -621.167847 125 128 133
4.581560 -13.878454 -621.167847 53 56 60
4.331560 -13.878454 -621.167847 23 27 28
4.081560 -13.878454 -621.167847 30 32 33
3.831560 -13.878454 -621.167847 29 31 32
3.581560 -13.878454 -621.167847 34 33 35
3.331560 -13.878454 -621.167847 31 30 32
0.009321 -1.586109 -70.990608 138 141 145
-0.019250 -1.586109 -70.990608 138 141 145
-0.047822 -1.586109 -70.990608 138 141 145
-0.076393 -1.586109 -70.990608 138 141 145
-0.104965 -1.586109 -70.990608 138 141 145
-0.133536 -1.586109 -70.990608 138 141 145
-0.162107 -1.586109 -70.990608 141 144 148
-5.523561 -2.874502 -128.656128 154 152 152
-5.657444 -2.837767 -127.011955 175 175 175
-5.708563 -2.837767 -127.011955 174 174 174
-5.759681 -2.837767 -127.011955 173 173 173
-5.829423 -2.846862 -127.419044 173 173 173
-5.937800 -2.874502 -128.656128 175 175 175
-5.989580 -2.874502 -128.656128 176 176 176
-6.041360 -2.874502 -128.656128 177 177 177
-4.483626 -1.769365 -79.192711 175 177 177
-4.579354 -1.794386 -80.312607 176 176 176
-4.621013 -1.798018 -80.475189 176 176 176
-4.672318 -1.805327 -80.802322 177 177 177
-4.695295 -1.801665 -80.638420 177 177 177
-4.727749 -1.801665 -80.638420 176 177 175
-4.822001 -1.812696 -81.132126 188 167 169
-4.844766 -1.809004 -80.966888 168 125 128
-4.877353 -1.809004 -80.966888 162 88 94
-4.909939 -1.809004 -80.966888 163 87 91
-8.889256 -2.874502 -128.656128 179 180 178
-8.798663 -2.828730 -126.607460 180 181 179
-8.877892 -2.837767 -127.011955 175 177 177
-8.929010 -2.837767 -127.011955 177 181 186
-8.980128 -2.837767 -127.011955 150 159 173
-9.031247 -2.837767 -127.011955 100 113 139
-9.082365 -2.837767 -127.011955 80 96 133
-9.133483 -2.837767 -127.011955 83 101 142
-9.184602 -2.837767 -127.011955 78 94 130
-9.235720 -2.837767 -127.011955 124 137 163
-9.286838 -2.837767 -127.011955 174 179 188
-9.337956 -2.837767 -127.011955 176 178 179
-9.389074 -2.837767 -127.011955 179 178 180
-9.440192 -2.837767 -127.011955 179 178 180
-9.431048 -2.819749 -126.205528 177 179 179
-9.481842 -2.819749 -126.205528 177 179 179
-9.502469 -2.810826 -125.806145 178 178 178
-9.463261 -2.784392 -124.623016 182 180 180
-11.919622 -3.364474 -150.586151 188 166 168
-11.980228 -3.364474 -150.586151 188 161 164
-52.668442 -13.878454 -621.167847 178 182 183
-52.918442 -13.878454 -621.167847 177 181 182
-53.918442 -13.878454 -621.167847 179 181 181
-54.168442 -13.878454 -621.167847 180 182 182
-54.418442 -13.878454 -621.167847 183 184 182
-54.668442 -13.878454 -621.167847 183 184 182
-9.019251 -1.586109 -70.990608 179 180 178
-83.668442 -13.878454 -621.167847 182 183 181
-83.918442 -13.878454 -621.167847 182 183 181
-10.990679 -1.586109 -70.990608 182 183 181
-11.019251 -1.586109 -70.990608 182 183 181
-11.047822 -1.586109 -70.990608 183 184 182
-105.668442 -13.878454 -621.167847 183 184 182
-105.918442 -13.878454 -621.167847 184 185 183
-106.168442 -13.878454 -621.167847 186 187 185
-106.418442 -13.878454 -621.167847 186 187 185
-106.668442 -13.878454 -621.167847 183 184 182
-106.918442 -13.878454 -621.167847 182 183 181
-107.168442 -13.878454 -621.167847 182 183 181
5.752178 -1.614681 -70.990608 150 152 162
5.723607 -1.614681 -70.990608 149 152 160
5.695035 -1.614681 -70.990608 149 152 160
5.037892 -1.614681 -70.990608 144 147 155
5.009321 -1.614681 -70.990608 144 147 155
43.081558 -14.128454 -621.167847 144 147 155
42.331558 -14.128454 -621.167847 145 147 155
33.581558 -14.128454 -621.167847 203 195 196
33.331558 -14.128454 -621.167847 202 200 200
33.081558 -14.128454 -621.167847 197 199 199
32.831558 -14.128454 -621.167847 196 201 199
32.581558 -14.128454 -621.167847 198 200 200
32.331558 -14.128454 -621.167847 197 199 199
32.081558 -14.128454 -621.167847 199 199 199
31.831560 -14.128454 -621.167847 199 199 199
31.581560 -14.128454 -621.167847 200 201 199
31.331560 -14.128454 -621.167847 200 201 199
31.081560 -14.128454 -621.167847 198 200 201
5.573969 -4.543825 -199.772568 188 191 189
5.493567 -4.543825 -199.772568 188 186 186
5.413165 -4.543825 -199.772568 190 186 185
5.306099 -4.521105 -198.773712 154 147 144
5.252361 -4.543825 -199.772568 78 62 56
5.171959 -4.543825 -199.772568 85 50 46
5.091557 -4.543825 -199.772568 106 74 68
5.011155 -4.543825 -199.772568 166 154 148
4.930753 -4.543825 -199.772568 193 193 187
4.850351 -4.543825 -199.772568 189 190 188
4.769949 -4.543825 -199.772568 188 190 190
4.586631 -4.685083 -205.983124 189 190 188
1.495035 -1.614681 -70.990608 189 190 188
1.466464 -1.614681 -70.990608 189 190 188
6.331560 -14.128454 -621.167847 130 135 138
6.081560 -14.128454 -621.167847 131 135 140
5.581560 -14.128454 -621.167847 132 135 143
5.331560 -14.128454 -621.167847 131 134 142
5.081560 -14.128454 -621.167847 133 136 141
4.831560 -14.128454 -621.167847 125 128 132
4.581560 -14.128454 -621.167847 56 59 63
4.331560 -14.128454 -621.167847 26 30 31
4.081560 -14.128454 -621.167847 32 34 35
3.831560 -14.128454 -621.167847 30 32 33
3.581560 -14.128454 -621.167847 35 34 36
3.331560 -14.128454 -621.167847 33 32 34
3.081560 -14.128454 -621.167847 70 69 73
0.009321 -1.614681 -70.990608 137 140 144
-0.019250 -1.614681 -70.990608 138 141 145
-0.047822 -1.614681 -70.990608 139 142 146
-0.076393 -1.614681 -70.990608 140 143 147
-0.104965 -1.614681 -70.990608 141 144 148
-0.133536 -1.614681 -70.990608 141 144 148
-5.265321 -2.898144 -127.419044 84 79 80
-5.316603 -2.898144 -127.419044 64 59 60
-5.657444 -2.888885 -127.011955 173 173 173
-5.708563 -2.888885 -127.011955 174 174 174
-5.759681 -2.888885 -127.011955 174 174 174
-5.810799 -2.888885 -127.011955 173 173 173
-5.957078 -2.935783 -129.073837 174 174 174
-5.989580 -2.926282 -128.656128 174 174 174
-6.041360 -2.926282 -128.656128 174 174 174
-4.483626 -1.801237 -79.192711 173 175 175
-4.579354 -1.826709 -80.312607 176 176 176
-4.621013 -1.830407 -80.475189 177 177 177
-4.672318 -1.837848 -80.802322 177 177 177
-4.695295 -1.834120 -80.638420 176 176 176
-4.727749 -1.834120 -80.638420 175 176 174
-4.812180 -1.841591 -80.966888 187 166 168
-4.844766 -1.841591 -80.966888 163 123 125
-4.877353 -1.841591 -80.966888 160 88 94
-8.819544 -2.954971 -129.917465 179 178 180
-8.889256 -2.926282 -128.656128 178 179 177
-8.798663 -2.879685 -126.607460 179 180 178
-8.877892 -2.888885 -127.011955 175 177 177
-8.929010 -2.888885 -127.011955 177 181 186
-9.008911 -2.898144 -127.419044 152 161 175
-9.060193 -2.898144 -127.419044 103 116 142
-9.111475 -2.898144 -127.419044 83 99 136
-9.133483 -2.888885 -127.011955 85 103 144
-9.184602 -2.888885 -127.011955 78 97 132
-9.235720 -2.888885 -127.011955 125 138 164
-9.286838 -2.888885 -127.011955 174 179 188
-9.337956 -2.888885 -127.011955 176 178 179
-9.389074 -2.888885 -127.011955 179 178 180
-9.440192 -2.888885 -127.011955 179 178 180
-9.431048 -2.870543 -126.205528 177 179 179
-9.481842 -2.870543 -126.205528 178 180 180
-9.502469 -2.861459 -125.806145 180 178 178
-9.463261 -2.834549 -124.623016 184 179 180
-11.919622 -3.425080 -150.586151 138 94 100
-11.980228 -3.425080 -150.586151 133 87 93
-52.668442 -14.128454 -621.167847 176 181 182
-52.918442 -14.128454 -621.167847 176 181 182
-53.918442 -14.128454 -621.167847 179 181 181
-54.168442 -14.128454 -621.167847 179 181 181
-54.418442 -14.128454 -621.167847 182 183 181
-54.668442 -14.128454 -621.167847 182 183 181
-9.816497 -1.779963 -78.257370 179 180 178
-9.019251 -1.614681 -70.990608 179 180 178
-83.668442 -14.128454 -621.167847 180 181 179
-83.918442 -14.128454 -621.167847 180 181 179
-10.990679 -1.614681 -70.990608 182 183 181
-11.019251 -1.614681 -70.990608 182 183 181
-11.047822 -1.614681 -70.990608 182 183 181
-105.668442 -14.128454 -621.167847 183 184 182
-105.918442 -14.128454 -621.167847 184 185 183
-106.168442 -14.128454 -621.167847 185 186 184
-106.418442 -14.128454 -621.167847 185 186 184
-106.668442 -14.128454 -621.167847 183 184 182
-106.918442 -14.128454 -621.167847 183 184 182
-107.168442 -14.128454 -621.167847 184 185 183
5.752178 -1.643252 -70.990608 151 153 161
5.723607 -1.643252 -70.990608 150 152 160
5.009321 -1.643252 -70.990608 143 149 156
43.081558 -14.378454 -621.167847 144 146 156
33.581558 -14.378454 -621.167847 200 194 195
33.331558 -14.378454 -621.167847 200 200 200
33.081558 -14.378454 -621.167847 198 200 200
32.831558 -14.378454 -621.167847 198 203 201
32.581558 -14.378454 -621.167847 199 201 201
32.331558 -14.378454 -621.167847 198 200 200
32.081558 -14.378454 -621.167847 199 199 199
31.831560 -14.378454 -621.167847 200 200 200
31.581560 -14.378454 -621.167847 200 201 199
31.331560 -14.378454 -621.167847 199 200 198
31.081560 -14.378454 -621.167847 197 199 200
30.831560 -14.378454 -621.167847 197 199 200
5.546099 -4.601105 -198.773712 189 193 188
5.466099 -4.601105 -198.773712 189 187 186
5.386099 -4.601105 -198.773712 192 188 187
5.306099 -4.601105 -198.773712 168 159 156
5.226099 -4.601105 -198.773712 85 66 61
5.146099 -4.601105 -198.773712 90 53 49
5.066099 -4.601105 -198.773712 109 75 69
4.986099 -4.601105 -198.773712 167 155 149
4.906099 -4.601105 -198.773712 191 191 185
4.826099 -4.601105 -198.773712 188 188 188
4.769949 -4.624227 -199.772568 189 189 189
4.586631 -4.767985 -205.983124 186 189 187
1.495035 -1.643252 -70.990608 187 190 188
1.466464 -1.643252 -70.990608 187 190 188
6.331560 -14.378454 -621.167847 131 134 139
6.081560 -14.378454 -621.167847 133 136 141
5.581560 -14.378454 -621.167847 132 134 142
5.331560 -14.378454 -621.167847 130 132 140
5.081560 -14.378454 -621.167847 134 134 140
4.831560 -14.378454 -621.167847 124 125 129
4.581560 -14.378454 -621.167847 59 60 64
4.331560 -14.378454 -621.167847 29 31 32
4.081560 -14.378454 -621.167847 36 35 37
3.831560 -14.378454 -621.167847 33 32 34
3.581560 -14.378454 -621.167847 36 35 37
3.331560 -14.378454 -621.167847 34 33 35
0.009321 -1.643252 -70.990608 139 142 146
-0.019250 -1.643252 -70.990608 139 142 146
-0.047822 -1.643252 -70.990608 140 143 147
-0.076393 -1.643252 -70.990608 140 143 147
-0.104965 -1.643252 -70.990608 141 144 148
-0.133536 -1.643252 -70.990608 141 144 148
-5.265321 -2.949426 -127.419044 79 74 75
-5.316603 -2.949426 -127.419044 60 55 56
-5.367885 -2.949426 -127.419044 57 52 53
-5.419167 -2.949426 -127.419044 58 56 56
-5.521731 -2.949426 -127.419044 173 173 173
-5.657444 -2.940003 -127.011955 173 173 173
-5.708563 -2.940003 -127.011955 174 174 174
-5.759681 -2.940003 -127.011955 174 174 174
-5.810799 -2.940003 -127.011955 173 173 173
-5.957078 -2.987731 -129.073837 173 173 173
-5.989580 -2.978062 -128.656128 174 173 175
-6.041360 -2.978062 -128.656128 174 173 175
-4.483626 -1.833110 -79.192711 175 177 177
-4.579354 -1.859033 -80.312607 177 177 177
-4.621013 -1.862796 -80.475189 178 178 178
-4.662840 -1.866574 -80.638420 178 178 178
-4.695295 -1.866574 -80.638420 176 176 176
-4.727749 -1.866574 -80.638420 175 176 174
-4.812180 -1.874177 -80.966888 186 168 169
-4.844766 -1.874177 -80.966888 163 123 125
-4.867440 -1.870368 -80.802322 162 90 96
-4.987384 -1.866574 -80.638420 187 174 176
-8.819544 -3.007258 -129.917465 178 177 179
-8.871831 -3.007258 -129.917465 178 178 178
-8.924119 -3.007258 -129.917465 176 179 177
-8.889256 -2.978062 -128.656128 178 179 177
-8.798663 -2.930640 -126.607460 178 179 177
-8.877892 -2.940003 -127.011955 173 175 175
-8.957629 -2.949426 -127.419044 175 179 184
-9.008911 -2.949426 -127.419044 150 159 173
-9.060193 -2.949426 -127.419044 102 115 141
-9.111475 -2.949426 -127.419044 79 97 134
-9.162757 -2.949426 -127.419044 84 102 143
-9.184602 -2.940003 -127.011955 77 96 131
-9.235720 -2.940003 -127.011955 123 136 162
-9.286838 -2.940003 -127.011955 175 180 189
-9.337956 -2.940003 -127.011955 176 178 179
-9.389074 -2.940003 -127.011955 179 178 180
-9.410129 -2.930640 -126.607460 178 177 179
-9.431048 -2.921337 -126.205528 179 179 179
-9.481842 -2.921337 -126.205528 180 180 180
-9.502469 -2.912092 -125.806145 180 178 178
-9.463261 -2.884706 -124.623016 184 179 180
-11.919622 -3.485686 -150.586151 124 59 68
-11.980228 -3.485686 -150.586151 128 61 70
-12.116152 -3.472532 -150.017899 170 143 146
-52.668442 -14.378454 -621.167847 175 181 180
-52.918442 -14.378454 -621.167847 177 182 181
-53.918442 -14.378454 -621.167847 179 182 180
-54.168442 -14.378454 -621.167847 179 182 180
-54.418442 -14.378454 -621.167847 181 182 180
-54.668442 -14.378454 -621.167847 181 182 180
-9.816497 -1.811459 -78.257370 178 179 177
-83.668442 -14.378454 -621.167847 179 180 178
-83.918442 -14.378454 -621.167847 179 180 178
-10.990679 -1.643252 -70.990608 183 184 182
-11.019251 -1.643252 -70.990608 182 182 182
-11.047822 -1.643252 -70.990608 181 181 181
-11.076393 -1.643252 -70.990608 182 182 182
-105.668442 -14.378454 -621.167847 184 185 183
-105.918442 -14.378454 -621.167847 184 185 183
-106.168442 -14.378454 -621.167847 184 185 183
-106.418442 -14.378454 -621.167847 184 185 183
-106.668442 -14.378454 -621.167847 184 185 183
-106.918442 -14.378454 -621.167847 185 186 184
5.752178 -1.671823 -70.990608 149 151 159
5.723607 -1.671823 -70.990608 149 151 159
5.037892 -1.671823 -70.990608 144 150 157
5.009321 -1.671823 -70.990608 144 150 157
43.081558 -14.628454 -621.167847 146 148 158
33.581558 -14.628454 -621.167847 200 194 195
33.331558 -14.628454 -621.167847 200 200 200
33.081558 -14.628454 -621.167847 198 200 200
32.831558 -14.628454 -621.167847 198 203 201
32.581558 -14.628454 -621.167847 197 199 199
32.331558 -14.628454 -621.167847 197 199 199
32.081558 -14.628454 -621.167847 199 199 199
31.831560 -14.628454 -621.167847 199 199 199
31.581560 -14.628454 -621.167847 200 201 199
31.331560 -14.628454 -621.167847 199 200 198
31.081560 -14.628454 -621.167847 197 199 199
30.831560 -14.628454 -621.167847 197 199 200
30.581560 -14.628454 -621.167847 197 199 199
5.518507 -4.657816 -197.784790 188 192 187
5.438905 -4.657816 -197.784790 189 187 186
5.359303 -4.657816 -197.784790 196 193 189
5.279701 -4.657816 -197.784790 174 165 162
5.200099 -4.657816 -197.784790 84 65 60
5.120497 -4.657816 -197.784790 89 52 48
5.040895 -4.657816 -197.784790 108 74 68
4.961293 -4.657816 -197.784790 166 154 148
4.881691 -4.657816 -197.784790 189 189 183
4.802089 -4.657816 -197.784790 188 186 186
4.586631 -4.850886 -205.983124 187 190 188
1.466464 -1.671823 -70.990608 188 191 189
6.581560 -14.628454 -621.167847 132 135 140
6.081560 -14.628454 -621.167847 135 138 143
5.581560 -14.628454 -621.167847 133 135 143
5.331560 -14.628454 -621.167847 133 136 141
5.081560 -14.628454 -621.167847 135 135 141
4.831560 -14.628454 -621.167847 124 125 129
4.581560 -14.628454 -621.167847 57 59 60
4.331560 -14.628454 -621.167847 29 31 32
4.081560 -14.628454 -621.167847 37 36 38
3.831560 -14.628454 -621.167847 34 33 35
3.581560 -14.628454 -621.167847 36 35 37
-0.019250 -1.671823 -70.990608 140 143 147
-0.047822 -1.671823 -70.990608 140 143 147
-0.076393 -1.671823 -70.990608 140 143 147
-0.104965 -1.671823 -70.990608 140 143 147
-5.248499 -2.991122 -127.011955 72 67 68
-5.299617 -2.991122 -127.011955 55 50 51
-5.367885 -3.000709 -127.419044 59 57 57
-5.419167 -3.000709 -127.419044 63 61 61
-5.470449 -3.000709 -127.419044 149 147 147
-5.521731 -3.000709 -127.419044 170 170 170
-5.639427 -2.981596 -126.607460 174 174 174
-5.690382 -2.981596 -126.607460 174 174 174
-5.741338 -2.981596 -126.607460 173 173 173
-5.810799 -2.991122 -127.011955 173 173 173
-5.957078 -3.039679 -129.073837 174 174 174
-5.989580 -3.029842 -128.656128 175 174 176
-6.041360 -3.029842 -128.656128 176 175 177
-4.483626 -1.864982 -79.192711 177 179 179
-4.579354 -1.891356 -80.312607 177 177 177
-4.621013 -1.895184 -80.475189 178 178 178
-4.662840 -1.899029 -80.638420 178 178 178
-4.695295 -1.899029 -80.638420 177 177 177
-4.727749 -1.899029 -80.638420 176 177 175
-4.812180 -1.906764 -80.966888 190 172 173
-4.844766 -1.906764 -80.966888 169 129 131
-4.867440 -1.902888 -80.802322 163 91 97
-4.954929 -1.899029 -80.638420 192 166 166
-4.987384 -1.899029 -80.638420 185 175 175
-8.819544 -3.059546 -129.917465 178 177 179
-8.871831 -3.059546 -129.917465 178 178 178
-8.924119 -3.059546 -129.917465 177 180 178
-8.889256 -3.029842 -128.656128 179 180 178
-8.798663 -2.981596 -126.607460 179 180 178
-8.877892 -2.991122 -127.011955 176 178 178
-8.957629 -3.000709 -127.419044 177 181 186
-9.037879 -3.010357 -127.828751 152 161 175
-9.060193 -3.000709 -127.419044 102 115 141
-9.140773 -3.010357 -127.828751 79 97 134
-9.162757 -3.000709 -127.419044 83 103 144
-9.214040 -3.000709 -127.419044 79 98 133
-9.265322 -3.000709 -127.419044 124 137 163
-9.286838 -2.991122 -127.011955 175 180 189
-9.337956 -2.991122 -127.011955 178 177 179
-9.389074 -2.991122 -127.011955 180 177 179
-9.410129 -2.981596 -126.607460 180 177 179
-9.431048 -2.972130 -126.205528 182 180 180
-9.481842 -2.972130 -126.205528 183 181 181
-9.502469 -2.962725 -125.806145 181 179 179
-9.463261 -2.934862 -124.623016 184 179 180
-12.116152 -3.532910 -150.017899 163 132 135
-52.668442 -14.628454 -621.167847 176 181 180
-52.918442 -14.628454 -621.167847 177 182 181
-53.918442 -14.628454 -621.167847 178 181 179
-54.168442 -14.628454 -621.167847 179 182 180
-54.418442 -14.628454 -621.167847 180 181 179
-54.668442 -14.628454 -621.167847 180 181 179
-9.816497 -1.842955 -78.257370 178 179 177
-83.668442 -14.628454 -621.167847 180 181 179
-83.918442 -14.628454 -621.167847 180 181 179
-10.990679 -1.671823 -70.990608 185 186 184
-11.019251 -1.671823 -70.990608 183 183 183
-11.047822 -1.671823 -70.990608 182 182 182
-11.076393 -1.671823 -70.990608 182 182 182
-105.668442 -14.628454 -621.167847 185 186 184
-105.918442 -14.628454 -621.167847 185 186 184
-106.168442 -14.628454 -621.167847 184 185 183
-106.418442 -14.628454 -621.167847 184 185 183
-106.668442 -14.628454 -621.167847 185 186 184
-106.918442 -14.628454 -621.167847 186 187 185
-107.168442 -14.628454 -621.167847 186 187 185
5.752178 -1.700395 -70.990608 150 153 158
5.723607 -1.700395 -70.990608 149 152 157
5.009321 -1.700395 -70.990608 144 149 158
43.081558 -14.878454 -621.167847 148 149 159
33.581558 -14.878454 -621.167847 200 194 195
33.331558 -14.878454 -621.167847 200 200 200
33.081558 -14.878454 -621.167847 197 199 199
32.831558 -14.878454 -621.167847 197 202 200
32.581558 -14.878454 -621.167847 197 199 199
32.331558 -14.878454 -621.167847 196 198 198
32.081558 -14.878454 -621.167847 199 199 199
31.831560 -14.878454 -621.167847 200 200 200
31.581560 -14.878454 -621.167847 200 201 199
31.331560 -14.878454 -621.167847 200 201 199
31.081560 -14.878454 -621.167847 199 199 199
30.831560 -14.878454 -621.167847 199 199 199
30.581560 -14.878454 -621.167847 197 199 200
5.491188 -4.713966 -196.805649 186 190 185
5.411980 -4.713966 -196.805649 188 186 185
5.332771 -4.713966 -196.805649 198 195 191
5.253563 -4.713966 -196.805649 168 159 156
5.174356 -4.713966 -196.805649 75 56 51
5.095148 -4.713966 -196.805649 86 49 45
5.015940 -4.713966 -196.805649 109 75 69
4.936732 -4.713966 -196.805649 170 158 152
4.857524 -4.713966 -196.805649 190 190 184
4.778316 -4.713966 -196.805649 188 186 186
1.466464 -1.700395 -70.990608 188 192 187
6.581560 -14.878454 -621.167847 133 136 141
6.331560 -14.878454 -621.167847 133 136 141
6.081560 -14.878454 -621.167847 134 136 144
5.581560 -14.878454 -621.167847 134 137 142
5.331560 -14.878454 -621.167847 134 137 142
5.081560 -14.878454 -621.167847 136 136 142
4.831560 -14.878454 -621.167847 124 125 129
4.581560 -14.878454 -621.167847 57 59 60
4.331560 -14.878454 -621.167847 29 31 32
4.081560 -14.878454 -621.167847 34 36 37
-0.019250 -1.700395 -70.990608 140 143 147
-0.047822 -1.700395 -70.990608 140 143 147
-0.076393 -1.700395 -70.990608 140 143 147
-0.104965 -1.700395 -70.990608 140 145 148
-5.248499 -3.042240 -127.011955 71 66 67
-5.299617 -3.042240 -127.011955 56 54 54
-5.350735 -3.042240 -127.011955 57 55 55
-5.401854 -3.042240 -127.011955 56 54 54
-5.470449 -3.051991 -127.419044 143 143 143
-5.504090 -3.042240 -127.011955 169 169 169
-5.639427 -3.032551 -126.607460 171 173 173
-5.690382 -3.032551 -126.607460 171 173 173
-5.741338 -3.032551 -126.607460 172 174 174
-5.792294 -3.032551 -126.607460 174 173 175
-5.957078 -3.091627 -129.073837 174 173 175
-5.989580 -3.081622 -128.656128 175 174 176
-4.483626 -1.896855 -79.192711 177 179 179
-4.579354 -1.923679 -80.312607 178 178 178
-4.621013 -1.927573 -80.475189 177 177 177
-4.672318 -1.935409 -80.802322 177 177 177
-4.695295 -1.931483 -80.638420 178 178 178
-4.727749 -1.931483 -80.638420 177 178 176
-4.812180 -1.939350 -80.966888 191 173 174
-4.844766 -1.939350 -80.966888 175 135 137
-4.867440 -1.935409 -80.802322 163 91 97
-4.954929 -1.931483 -80.638420 189 163 163
-4.987384 -1.931483 -80.638420 185 175 175
-8.819544 -3.111834 -129.917465 180 179 181
-8.871831 -3.111834 -129.917465 179 179 179
-8.924119 -3.111834 -129.917465 177 180 178
-8.889256 -3.081622 -128.656128 178 182 177
-8.798663 -3.032551 -126.607460 178 181 179
-8.906347 -3.051991 -127.419044 177 179 179
-8.986432 -3.061804 -127.828751 178 182 187
-9.037879 -3.061804 -127.828751 151 162 176
-9.089326 -3.061804 -127.828751 101 116 142
-9.140773 -3.061804 -127.828751 78 95 134
-9.192220 -3.061804 -127.828751 83 103 144
-9.214040 -3.051991 -127.419044 80 99 134
-9.265322 -3.051991 -127.419044 123 136 162
-9.316604 -3.051991 -127.419044 175 180 189
-9.367886 -3.051991 -127.419044 178 177 179
-9.419168 -3.051991 -127.419044 183 178 180
-9.410129 -3.032551 -126.607460 183 178 180
-9.431048 -3.022924 -126.205528 182 180 180
-9.481842 -3.022924 -126.205528 183 181 181
-9.502469 -3.013358 -125.806145 181 179 179
-9.463261 -2.985019 -124.623016 184 179 180
-12.116152 -3.593287 -150.017899 172 145 149
-52.668442 -14.878454 -621.167847 177 182 181
-52.918442 -14.878454 -621.167847 181 182 180
-53.918442 -14.878454 -621.167847 179 180 178
-54.168442 -14.878454 -621.167847 179 180 178
-54.418442 -14.878454 -621.167847 179 180 178
-54.668442 -14.878454 -621.167847 179 180 178
-9.816497 -1.874451 -78.257370 178 178 178
-83.668442 -14.878454 -621.167847 182 183 181
-83.918442 -14.878454 -621.167847 182 183 181
-11.019251 -1.700395 -70.990608 184 184 184
-11.047822 -1.700395 -70.990608 184 184 184
-11.076393 -1.700395 -70.990608 183 183 183
-105.668442 -14.878454 -621.167847 186 187 185
-105.918442 -14.878454 -621.167847 186 187 185
-106.168442 -14.878454 -621.167847 185 186 184
-106.418442 -14.878454 -621.167847 184 185 183
-106.668442 -14.878454 -621.167847 185 186 184
-106.918442 -14.878454 -621.167847 186 187 185
5.009321 -1.728966 -70.990608 145 150 159
33.581558 -15.128454 -621.167847 200 194 195
33.331558 -15.128454 -621.167847 200 200 200
33.081558 -15.128454 -621.167847 197 199 199
32.831558 -15.128454 -621.167847 195 200 198
32.581558 -15.128454 -621.167847 198 200 200
32.331558 -15.128454 -621.167847 198 200 200
32.081558 -15.128454 -621.167847 200 200 200
31.831560 -15.128454 -621.167847 201 201 201
31.581560 -15.128454 -621.167847 201 202 200
31.331560 -15.128454 -621.167847 200 201 199
31.081560 -15.128454 -621.167847 199 199 199
30.831560 -15.128454 -621.167847 198 198 198
30.581560 -15.128454 -621.167847 197 199 200
5.464137 -4.769562 -195.836166 190 191 187
5.385319 -4.769562 -195.836166 188 186 185
5.306502 -4.769562 -195.836166 196 193 189
5.227684 -4.769562 -195.836166 168 159 155
5.148866 -4.769562 -195.836166 74 55 50
5.070048 -4.769562 -195.836166 88 51 47
4.991231 -4.769562 -195.836166 111 77 71
4.912413 -4.769562 -195.836166 172 160 154
4.833595 -4.769562 -195.836166 193 190 185
4.754777 -4.769562 -195.836166 189 187 187
6.581560 -15.128454 -621.167847 133 136 141
6.331560 -15.128454 -621.167847 132 135 140
6.081560 -15.128454 -621.167847 132 134 142
5.581560 -15.128454 -621.167847 134 137 142
5.331560 -15.128454 -621.167847 133 136 141
5.081560 -15.128454 -621.167847 135 136 140
4.831560 -15.128454 -621.167847 124 125 129
4.581560 -15.128454 -621.167847 60 62 63
4.331560 -15.128454 -621.167847 31 33 34
-0.019250 -1.728966 -70.990608 141 144 148
-0.047822 -1.728966 -70.990608 141 144 148
-0.076393 -1.728966 -70.990608 141 144 148
-0.104965 -1.728966 -70.990608 141 146 149
-5.248499 -3.093358 -127.011955 74 69 70
-5.299617 -3.093358 -127.011955 57 55 55
-5.350735 -3.093358 -127.011955 54 52 52
-5.401854 -3.093358 -127.011955 50 50 50
-5.452972 -3.093358 -127.011955 144 144 144
-5.504090 -3.093358 -127.011955 171 171 171
-5.639427 -3.083507 -126.607460 170 172 172
-5.690382 -3.083507 -126.607460 171 173 173
-5.723112 -3.073718 -126.205528 173 175 175
-5.792294 -3.083507 -126.607460 175 174 176
-5.957078 -3.143575 -129.073837 174 173 175
-5.989580 -3.133402 -128.656128 174 173 175
-4.483626 -1.928727 -79.192711 179 181 181
-4.579354 -1.956002 -80.312607 179 179 179
-4.621013 -1.959962 -80.475189 177 177 177
-4.672318 -1.967929 -80.802322 177 177 177
-4.704838 -1.967929 -80.802322 179 179 179
-4.737358 -1.967929 -80.802322 177 178 176
-4.812180 -1.971937 -80.966888 190 172 173
-4.844766 -1.971937 -80.966888 175 135 137
-4.867440 -1.967929 -80.802322 163 91 97
-4.987384 -1.963937 -80.638420 188 176 176
-8.819544 -3.164121 -129.917465 181 180 182
-8.871831 -3.164121 -129.917465 179 179 179
-8.924119 -3.164121 -129.917465 176 179 177
-8.889256 -3.133402 -128.656128 177 181 176
-8.906347 -3.103273 -127.419044 174 176 176
-8.986432 -3.113251 -127.828751 176 180 185
-9.037879 -3.113251 -127.828751 150 161 175
-9.089326 -3.113251 -127.828751 102 117 143
-9.140773 -3.113251 -127.828751 77 94 133
-9.192220 -3.113251 -127.828751 81 100 143
-9.243667 -3.113251 -127.828751 78 96 133
-9.295114 -3.113251 -127.828751 119 132 158
-9.316604 -3.103273 -127.419044 174 179 188
-9.367886 -3.103273 -127.419044 180 177 179
-9.419168 -3.103273 -127.419044 183 178 180
-9.410129 -3.083507 -126.607460 184 177 180
-9.431048 -3.073718 -126.205528 182 180 180
-9.481842 -3.073718 -126.205528 181 181 181
-9.502469 -3.063991 -125.806145 179 179 179
-9.463261 -3.035176 -124.623016 182 180 180
-11.964944 -3.681449 -151.158722 119 67 74
-12.025781 -3.681449 -151.158722 132 75 83
-12.116152 -3.653664 -150.017899 194 173 176
-52.668442 -15.128454 -621.167847 180 182 182
-52.918442 -15.128454 -621.167847 183 181 180
-53.918442 -15.128454 -621.167847 179 180 178
-54.168442 -15.128454 -621.167847 179 180 178
-54.418442 -15.128454 -621.167847 179 180 178
-9.816497 -1.905947 -78.257370 179 179 179
-83.918442 -15.128454 -621.167847 182 183 181
-11.019251 -1.728966 -70.990608 184 184 184
-11.047822 -1.728966 -70.990608 184 184 184
-11.076393 -1.728966 -70.990608 184 184 184
-11.104965 -1.728966 -70.990608 184 184 184
-105.668442 -15.128454 -621.167847 185 186 184
-105.918442 -15.128454 -621.167847 186 187 185
-106.168442 -15.128454 -621.167847 186 187 185
-106.418442 -15.128454 -621.167847 185 186 184
-106.668442 -15.128454 -621.167847 185 186 184
-106.918442 -15.128454 -621.167847 185 186 184
-107.168442 -15.128454 -621.167847 185 186 184
-107.418442 -15.128454 -621.167847 186 187 185
33.581558 -15.378454 -621.167847 199 194 195
33.331558 -15.378454 -621.167847 200 200 200
33.081558 -15.378454 -621.167847 196 198 198
32.831558 -15.378454 -621.167847 194 199 197
32.581558 -15.378454 -621.167847 198 200 200
32.331558 -15.378454 -621.167847 198 200 200
32.081558 -15.378454 -621.167847 200 200 200
31.831560 -15.378454 -621.167847 201 201 201
31.581560 -15.378454 -621.167847 200 201 199
31.331560 -15.378454 -621.167847 199 200 198
31.081560 -15.378454 -621.167847 198 198 198
30.831560 -15.378454 -621.167847 197 197 197
30.581560 -15.378454 -621.167847 196 198 199
30.331560 -15.378454 -621.167847 197 199 200
6.331560 -15.378454 -621.167847 133 136 141
6.081560 -15.378454 -621.167847 135 137 145
5.581560 -15.378454 -621.167847 137 140 145
5.331560 -15.378454 -621.167847 136 139 144
5.081560 -15.378454 -621.167847 136 139 143
4.581560 -15.378454 -621.167847 59 63 64
-0.019250 -1.757538 -70.990608 141 144 148
-0.047822 -1.757538 -70.990608 141 144 148
-0.076393 -1.757538 -70.990608 142 145 149
-0.104965 -1.757538 -70.990608 141 146 147
-0.133536 -1.757538 -70.990608 141 146 147
-5.162757 -3.154555 -127.419044 142 142 142
-5.248499 -3.144476 -127.011955 76 71 72
-5.299617 -3.144476 -127.011955 57 55 55
-5.350735 -3.144476 -127.011955 56 54 54
-5.401854 -3.144476 -127.011955 53 53 53
-5.452972 -3.144476 -127.011955 146 146 146
-5.504090 -3.144476 -127.011955 170 172 172
-5.555208 -3.144476 -127.011955 170 172 172
-5.639427 -3.134462 -126.607460 171 173 173
-5.672318 -3.124511 -126.205528 172 174 175
-5.723112 -3.124511 -126.205528 174 176 177
-5.792294 -3.134462 -126.607460 174 176 177
-5.957078 -3.195523 -129.073837 172 174 175
-5.989580 -3.185181 -128.656128 174 173 175
-4.483626 -1.960600 -79.192711 179 181 181
-4.579354 -1.988325 -80.312607 179 179 179
-4.621013 -1.992350 -80.475189 178 178 178
-4.672318 -2.000449 -80.802322 178 178 178
-4.704838 -2.000449 -80.802322 179 179 179
-4.737358 -2.000449 -80.802322 175 178 176
-4.822001 -2.008615 -81.132126 186 170 171
-4.854654 -2.008615 -81.132126 169 130 132
-4.867440 -2.000449 -80.802322 162 91 94
-4.987384 -1.996392 -80.638420 189 177 177
-8.819544 -3.216409 -129.917465 181 180 182
-8.842933 -3.205932 -129.494278 179 179 179
-8.895050 -3.205932 -129.494278 176 179 177
-8.889256 -3.185181 -128.656128 176 180 175
-8.906347 -3.154555 -127.419044 175 177 177
-8.986432 -3.164698 -127.828751 177 181 186
-9.037879 -3.164698 -127.828751 152 163 177
-9.089326 -3.164698 -127.828751 104 119 145
-9.140773 -3.164698 -127.828751 79 96 135
-9.192220 -3.164698 -127.828751 83 102 145
-9.243667 -3.164698 -127.828751 80 98 135
-9.295114 -3.164698 -127.828751 120 133 159
-9.316604 -3.154555 -127.419044 172 177 186
-9.367886 -3.154555 -127.419044 179 176 178
-9.419168 -3.154555 -127.419044 184 177 180
-9.410129 -3.134462 -126.607460 184 177 180
-9.431048 -3.124511 -126.205528 182 180 180
-9.481842 -3.124511 -126.205528 178 180 180
-9.502469 -3.114624 -125.806145 176 178 178
-9.463261 -3.085332 -124.623016 179 179 179
-12.025781 -3.742285 -151.158722 141 106 110
-12.116152 -3.714042 -150.017899 187 179 180
-52.668442 -15.378454 -621.167847 182 183 181
-53.918442 -15.378454 -621.167847 180 181 179
-54.168442 -15.378454 -621.167847 180 181 179
-54.418442 -15.378454 -621.167847 181 182 180
