ply
format ascii 1.0
element vertex 1199
property float x
property float y
property float z
property uchar red
property uchar green
property uchar blue
end_header
3.564663 0.554903 -33.504642 69 57 53
12.753277 2.047801 -123.644753 118 101 98
12.275438 1.981475 -119.640060 121 106 103
12.064133 1.957698 -118.204384 126 112 106
11.583139 1.889670 -114.096893 105 91 85
11.260503 1.846885 -111.513565 42 30 26
6.501249 1.146193 -69.206314 45 32 24
6.403790 1.135556 -68.564026 36 23 15
6.381473 1.138196 -68.723480 31 15 8
16.550207 3.058903 -184.694351 34 13 11
3.072127 0.641447 -38.730137 78 19 9
3.051157 0.641447 -38.730137 83 21 13
3.018320 0.638935 -38.578453 81 19 11
2.993524 0.638102 -38.528156 81 22 13
2.961836 0.644828 -38.934250 77 22 15
2.944635 0.645679 -38.985615 81 23 17
2.990598 0.660492 -39.880020 80 22 16
2.977041 0.662279 -39.987949 79 19 13
2.959395 0.663177 -40.042133 81 22 13
2.941700 0.664077 -40.096466 83 21 13
2.919991 0.664077 -40.096466 82 20 12
1.889975 0.464350 -28.037092 73 20 17
1.873017 0.463909 -28.010517 76 23 20
1.857851 0.463909 -28.010517 71 18 15
1.507479 0.428943 -25.899296 67 16 13
1.486940 0.427072 -25.786297 68 20 16
0.960697 0.343697 -20.752174 68 16 9
1.337371 0.489914 -29.580677 74 19 10
1.321355 0.489914 -29.580677 76 19 10
1.296256 0.486505 -29.374847 77 19 13
1.528021 0.595407 -35.950237 76 20 15
1.506723 0.594683 -35.906555 76 21 16
1.478301 0.591092 -35.689728 72 22 16
1.445016 0.585436 -35.348202 73 24 16
1.419087 0.582648 -35.179874 68 21 13
1.381943 0.575117 -34.725143 67 22 11
1.348876 0.569098 -34.361740 66 24 12
5.550208 3.058903 -184.694351 102 86 74
5.450208 3.058903 -184.694351 104 94 84
5.350208 3.058903 -184.694351 104 95 82
5.250208 3.058903 -184.694351 106 97 84
5.150208 3.058903 -184.694351 101 92 79
5.050208 3.058903 -184.694351 107 99 86
4.950208 3.058903 -184.694351 103 95 82
4.850208 3.058903 -184.694351 99 91 78
2.074186 1.647894 -99.498642 105 95 85
-0.374077 0.352104 -21.259781 98 93 78
-1.661453 1.254934 -75.772041 104 97 82
-1.770908 1.245355 -75.193626 104 97 82
-1.802447 1.239049 -74.812897 105 98 83
-1.847631 1.242194 -75.002785 103 96 81
-1.883460 1.239049 -74.812897 102 95 80
-1.909464 1.229710 -74.248985 103 96 81
-4.415119 2.674450 -161.481400 105 98 83
-4.478080 2.659915 -160.603775 105 98 83
-4.515950 2.631314 -158.876862 103 96 81
-4.601972 2.631314 -158.876862 102 95 80
-4.713334 2.645538 -159.735657 104 97 82
-4.748485 2.617243 -158.027252 106 99 84
-4.708160 2.549086 -153.911957 107 101 88
-4.742096 2.522806 -152.325241 100 97 83
-4.824571 2.522806 -152.325241 99 94 79
-4.856973 2.497063 -150.770889 103 98 83
-4.913537 2.484388 -150.005569 104 97 80
-5.020238 2.497063 -150.770889 106 99 82
-5.101871 2.497063 -150.770889 103 96 79
-5.157192 2.484388 -150.005569 102 95 78
-5.185763 2.459419 -148.497971 102 98 80
-5.112033 2.387436 -144.151688 106 102 84
-4.948683 2.276393 -137.446960 90 83 66
-6.529773 2.091558 -126.286736 47 29 18
-3.912971 1.063966 -64.241516 40 36 35
-3.930664 1.059360 -63.963409 44 40 39
-4.087646 1.073299 -64.805031 35 27 27
-4.086884 1.063966 -64.241516 32 24 24
-4.042573 1.043549 -63.008732 28 20 20
-4.050777 1.036916 -62.608253 23 18 17
-5.608378 1.294774 -78.177505 39 20 17
-5.591536 1.281216 -77.358887 37 18 15
-2.576383 0.534306 -32.261021 61 39 27
-16.649792 3.058903 -184.694351 79 47 34
-16.749792 3.058903 -184.694351 76 47 33
-16.849792 3.058903 -184.694351 82 58 46
-16.949793 3.058903 -184.694351 70 52 41
-17.049793 3.058903 -184.694351 54 38 31
-4.766180 0.794520 -47.972557 103 97 86
-4.670834 0.774406 -46.758064 105 97 84
-3.489419 0.543201 -32.798107 101 93 80
-2.458429 0.350591 -21.168407 102 96 77
-2.462833 0.349589 -21.107925 100 94 75
-2.465457 0.348345 -21.032808 102 98 79
-2.459341 0.345883 -20.884167 102 98 79
-2.455033 0.343697 -20.752174 107 100 83
-2.466269 0.343697 -20.752174 107 100 83
-2.477505 0.343697 -20.752174 105 97 80
-2.488741 0.343697 -20.752174 107 97 80
-2.499977 0.343697 -20.752174 109 99 82
-2.511213 0.343697 -20.752174 109 101 84
-2.522449 0.343697 -20.752174 102 94 77
-2.533684 0.343697 -20.752174 104 96 79
-2.544920 0.343697 -20.752174 102 95 78
-2.556156 0.343697 -20.752174 105 98 81
-22.849792 3.058903 -184.694351 103 98 83
-22.949793 3.058903 -184.694351 101 96 81
-16.172270 2.109588 -127.375412 101 94 79
-16.102423 2.091558 -126.286736 104 97 82
-15.899020 2.056405 -124.164268 106 99 84
-15.510069 1.997651 -120.616714 106 99 84
-7.695175 0.932237 -56.287800 105 97 84
-7.310533 0.878679 -53.054031 104 97 82
-7.159311 0.857136 -51.753231 104 97 80
-7.088026 0.845293 -51.038162 103 97 78
-4.417193 0.468349 -28.278561 103 96 79
-4.441004 0.469247 -28.332787 102 95 78
-4.439319 0.467454 -28.224543 102 96 77
-32.049793 3.058903 -184.694351 103 96 79
-32.149792 3.058903 -184.694351 103 97 78
-32.249794 3.058903 -184.694351 106 99 80
-32.349792 3.058903 -184.694351 106 99 80
-32.449791 3.058903 -184.694351 102 94 77
-32.549793 3.058903 -184.694351 103 95 78
-32.649792 3.058903 -184.694351 106 98 81
-32.749794 3.058903 -184.694351 104 97 80
-32.849792 3.058903 -184.694351 101 97 79
-32.949791 3.058903 -184.694351 101 97 79
-33.049793 3.058903 -184.694351 102 98 80
-33.149792 3.058903 -184.694351 102 98 80
-33.249794 3.058903 -184.694351 101 97 79
-33.349792 3.058903 -184.694351 100 96 78
-29.999815 2.719025 -164.172760 96 92 74
-29.434603 2.659915 -160.603775 96 90 71
-29.047951 2.617243 -158.027252 99 93 74
-29.133512 2.617243 -158.027252 103 97 78
-28.310709 2.535878 -153.114487 101 95 76
-29.462187 2.631314 -158.876862 99 93 74
-29.390196 2.617243 -158.027252 103 96 79
-29.634230 2.631314 -158.876862 98 89 75
-29.561319 2.617243 -158.027252 101 92 79
-30.130255 2.659915 -160.603775 104 97 82
-32.799805 2.878967 -173.829971 102 95 80
-32.511436 2.845491 -171.808701 103 96 81
-32.988041 2.878967 -173.829971 102 95 78
-33.082157 2.878967 -173.829971 99 92 75
-33.176277 2.878967 -173.829971 99 92 75
-35.349792 3.058903 -184.694351 103 96 79
-35.449791 3.058903 -184.694351 97 90 75
-35.549793 3.058903 -184.694351 98 91 76
-35.649792 3.058903 -184.694351 104 95 81
-35.749794 3.058903 -184.694351 103 94 80
-24.100700 2.056405 -124.164268 103 94 80
4.436943 0.445786 -27.825890 17 15 7
4.401156 0.443697 -27.695498 20 16 11
16.535564 1.863876 -116.342896 30 11 14
15.729448 1.779791 -111.094345 30 11 14
2.776378 0.405676 -25.322275 84 79 80
2.739196 0.402230 -25.107134 53 50 52
3.600945 0.536762 -33.504642 31 22 25
3.570659 0.534943 -33.391068 59 49 49
12.595179 1.956299 -122.111969 116 98 97
12.225941 1.908970 -119.157646 117 102 99
12.016068 1.886153 -117.733452 119 105 99
11.583139 1.827894 -114.096893 125 111 105
11.260503 1.786507 -111.513565 99 85 79
16.550207 2.958903 -184.694351 36 15 13
16.450207 2.958903 -184.694351 37 12 8
3.072127 0.620478 -38.730137 78 19 9
3.051157 0.620478 -38.730137 79 22 13
3.018320 0.618048 -38.578453 77 20 11
2.961836 0.623748 -38.934250 76 18 12
2.944635 0.624570 -38.985615 81 21 15
1.972953 0.457857 -28.579395 77 19 14
1.936874 0.453038 -28.278561 73 15 10
1.912413 0.450880 -28.143900 73 17 12
1.888183 0.448744 -28.010517 73 18 13
1.865943 0.447049 -27.904716 77 22 19
1.849088 0.446627 -27.878391 71 16 13
1.832265 0.446206 -27.852118 74 17 15
1.567692 0.416014 -25.967571 77 22 17
1.546836 0.414195 -25.853977 74 19 14
1.534180 0.414557 -25.876616 77 22 19
1.517511 0.413833 -25.831377 73 20 17
1.500902 0.413110 -25.786297 67 16 13
1.358827 0.475803 -29.699594 73 19 12
1.340053 0.474849 -29.640017 75 20 13
1.324005 0.474849 -29.640017 76 19 10
1.302730 0.472952 -29.521574 76 18 12
1.281625 0.471069 -29.404076 77 19 13
1.528021 0.575942 -35.950237 74 18 13
1.506723 0.575242 -35.906555 74 19 14
1.481880 0.573153 -35.776146 71 19 13
1.455462 0.570391 -35.603729 72 22 16
1.420779 0.564272 -35.221806 67 20 12
1.386832 0.558284 -34.847992 67 21 13
1.352020 0.551777 -34.441837 65 20 9
5.450208 2.958903 -184.694351 109 97 85
5.350208 2.958903 -184.694351 105 96 83
5.250208 2.958903 -184.694351 103 94 81
5.150208 2.958903 -184.694351 103 95 82
5.050208 2.958903 -184.694351 98 90 77
4.950208 2.958903 -184.694351 100 94 81
4.850208 2.958903 -184.694351 108 102 89
2.128058 1.594022 -99.498642 101 93 80
2.060312 1.583359 -98.833099 103 94 81
-0.374077 0.340593 -21.259781 106 101 86
-1.670017 1.220166 -76.162621 102 95 80
-1.698125 1.210804 -75.578247 102 95 80
-1.739045 1.210804 -75.578247 102 95 80
-1.811620 1.204642 -75.193626 104 97 82
-1.852333 1.204642 -75.193626 104 97 82
-1.888240 1.201585 -75.002785 101 94 79
-1.919108 1.195516 -74.623978 101 94 79
-1.939917 1.183561 -73.877739 103 96 81
-1.965178 1.174750 -73.327782 104 97 82
-4.590720 2.689912 -167.903946 105 98 83
-4.577593 2.630136 -164.172760 105 98 83
-4.589982 2.587019 -161.481400 104 97 82
-4.677414 2.587019 -161.481400 103 96 81
-4.791026 2.601233 -162.368652 102 95 80
-4.825906 2.572959 -160.603775 101 96 81
-4.834047 2.531682 -158.027252 108 102 89
-4.867549 2.504891 -156.355011 101 98 84
-4.952205 2.504891 -156.355011 101 95 82
-4.984119 2.478662 -154.717773 106 101 86
-5.041493 2.465752 -153.911957 103 96 81
-5.151659 2.478662 -154.717773 105 98 81
-5.235428 2.478662 -154.717773 106 99 82
-5.264076 2.452976 -153.114487 108 101 84
-5.292138 2.427818 -151.544083 103 99 81
-5.162398 2.332140 -145.571899 102 97 82
-4.995149 2.222650 -138.737534 82 75 60
-4.799852 2.104109 -131.338196 39 30 17
-3.408079 1.207715 -75.385445 43 21 9
-6.631433 2.076423 -129.610062 33 16 3
-6.586064 2.040622 -127.375412 51 34 21
-3.938117 1.045087 -65.234207 42 38 37
-3.938658 1.035940 -64.663231 37 33 32
-3.956355 1.031426 -64.381470 42 37 36
-4.070412 1.042785 -65.090523 23 15 15
-4.087646 1.038211 -64.805031 20 12 12
-4.104731 1.033678 -64.522041 22 14 14
-4.077348 1.018117 -63.550743 21 13 13
-4.059378 1.005147 -62.741180 17 9 9
-5.608378 1.252446 -78.177505 45 30 27
-5.591536 1.239331 -77.358887 40 25 22
-2.590523 0.519676 -32.438084 64 45 32
-16.649792 2.958903 -184.694351 71 39 26
-16.749792 2.958903 -184.694351 75 46 32
-16.849792 2.958903 -184.694351 82 56 44
-16.949793 2.958903 -184.694351 68 48 37
-4.731411 0.779941 -48.683849 103 94 80
-4.789505 0.772307 -48.207333 102 96 85
-4.693111 0.752662 -46.981075 105 96 86
-3.514570 0.531938 -33.203480 103 95 82
-3.477839 0.523700 -32.689266 105 97 84
-2.424391 0.336000 -20.973099 102 95 78
-2.457567 0.337437 -21.062792 100 96 77
-2.443797 0.332461 -20.752174 97 96 76
-2.455033 0.332461 -20.752174 105 98 81
-2.466269 0.332461 -20.752174 108 101 84
-2.477505 0.332461 -20.752174 109 99 82
-2.488741 0.332461 -20.752174 106 96 79
-2.499977 0.332461 -20.752174 104 93 79
-2.511213 0.332461 -20.752174 102 92 75
-2.522449 0.332461 -20.752174 106 98 81
-2.533684 0.332461 -20.752174 104 96 79
-2.544920 0.332461 -20.752174 99 92 75
-2.556156 0.332461 -20.752174 102 95 78
-22.849792 2.958903 -184.694351 104 99 84
-22.949793 2.958903 -184.694351 104 99 84
-16.384134 2.067356 -129.044083 100 93 78
-16.171532 2.031865 -126.828735 103 96 81
-15.966105 1.997571 -124.688164 106 99 84
-15.510069 1.932345 -120.616714 107 100 85
-32.149792 2.958903 -184.694351 103 96 79
-32.249794 2.958903 -184.694351 105 97 80
-32.349792 2.958903 -184.694351 103 95 78
-32.449791 2.958903 -184.694351 100 92 75
-32.549793 2.958903 -184.694351 104 96 79
-32.649792 2.958903 -184.694351 109 100 86
-32.749794 2.958903 -184.694351 105 98 83
-32.849792 2.958903 -184.694351 105 98 83
-32.949791 2.958903 -184.694351 102 98 80
-33.049793 2.958903 -184.694351 101 97 79
-33.149792 2.958903 -184.694351 100 96 78
-33.249794 2.958903 -184.694351 99 95 77
-33.349792 2.958903 -184.694351 98 94 76
-33.449791 2.958903 -184.694351 101 97 79
-33.549793 2.958903 -184.694351 103 99 81
-29.758059 2.601233 -162.368652 101 95 76
-29.204123 2.545293 -158.876862 99 93 74
-28.825222 2.504891 -156.355011 102 96 77
-28.310709 2.452976 -153.114487 102 96 77
-29.304636 2.531682 -158.027252 101 95 76
-29.233866 2.518215 -157.186676 102 95 78
-29.475758 2.531682 -158.027252 106 97 83
-32.607994 2.768564 -172.813431 100 93 78
-32.137741 2.720830 -169.833878 100 93 78
-31.683428 2.674714 -166.955338 101 94 77
-32.697483 2.752468 -171.808701 101 94 77
-32.790504 2.752468 -171.808701 101 94 77
-35.349792 2.958903 -184.694351 107 100 83
-35.449791 2.958903 -184.694351 101 94 79
-35.549793 2.958903 -184.694351 101 94 79
-24.202391 1.997571 -124.688164 102 93 79
-23.966528 1.972602 -123.129562 102 93 79
4.436943 0.430720 -27.825890 14 12 4
4.397035 0.428300 -27.669565 16 13 5
16.470718 1.793821 -115.886650 23 10 12
15.788805 1.726130 -111.513565 24 10 12
2.766894 0.390627 -25.235777 41 36 35
2.736870 0.388306 -25.085819 33 28 29
12.491940 1.874690 -121.111046 109 91 92
12.176840 1.837046 -118.679100 113 95 94
11.874146 1.800884 -116.342896 118 101 98
11.450508 1.745895 -112.790443 123 107 101
11.218170 1.719641 -111.094345 121 105 99
16.550207 2.858903 -184.694351 40 17 15
16.450207 2.858903 -184.694351 41 14 10
16.350208 2.858903 -184.694351 48 11 7
3.072127 0.599508 -38.730137 79 16 8
3.051157 0.599508 -38.730137 94 39 32
3.018320 0.597160 -38.578453 97 45 38
2.430976 0.505441 -32.653145 74 13 9
1.972953 0.442383 -28.579395 79 21 15
1.936874 0.437727 -28.278561 78 20 14
1.912413 0.435642 -28.143900 78 20 14
1.886395 0.433167 -27.983992 75 20 13
1.864182 0.431533 -27.878391 73 17 12
1.843869 0.430315 -27.799713 74 18 13
1.828818 0.430315 -27.799713 73 17 12
1.597263 0.395354 -25.541138 77 20 11
1.582067 0.395012 -25.519081 72 17 8
1.573456 0.399847 -25.831377 76 21 14
1.558108 0.399497 -25.808817 76 20 15
1.540099 0.398453 -25.741373 77 22 17
1.524833 0.398107 -25.718969 75 20 17
1.510908 0.398107 -25.718969 74 20 19
1.360194 0.460186 -29.729473 68 16 9
1.344098 0.460186 -29.729473 71 17 10
1.328001 0.460186 -29.729473 73 18 11
1.307957 0.458801 -29.640017 71 15 10
1.480088 0.553113 -35.732883 77 22 17
1.457217 0.551779 -35.646679 75 20 15
1.422474 0.545853 -35.263836 74 22 15
1.390110 0.540691 -34.930374 74 25 17
1.353598 0.533751 -34.482025 72 23 13
2.113824 1.529848 -98.833099 97 88 75
2.026425 1.504686 -97.207550 95 86 73
-0.363088 0.329557 -21.290415 105 97 84
-0.374077 0.329082 -21.259781 108 101 86
-1.700700 1.200589 -77.561928 107 100 85
-1.724589 1.188115 -76.756096 104 97 82
-1.752492 1.178929 -76.162621 104 97 82
-1.784530 1.172883 -75.772041 105 98 83
-1.820887 1.169883 -75.578247 104 97 82
-1.861807 1.169883 -75.578247 100 93 78
-1.897874 1.166899 -75.385445 102 95 80
-1.928850 1.160976 -75.002785 107 100 85
-1.954576 1.152203 -74.436012 101 94 79
-1.979917 1.143561 -73.877739 101 94 79
-4.752746 2.690732 -173.829971 104 97 82
-4.735441 2.628876 -169.833878 110 103 88
-4.745575 2.584319 -166.955338 104 97 82
-4.891239 2.613854 -168.863403 102 95 80
-4.926366 2.584319 -166.955338 108 101 86
-4.878938 2.513321 -162.368652 102 97 82
-4.886307 2.472564 -159.735657 106 100 87
-4.946058 2.459271 -158.876862 105 102 88
-5.005170 2.446120 -158.027252 107 101 88
-5.063653 2.433109 -157.186676 99 94 79
-5.148759 2.433109 -157.186676 106 99 84
-5.261854 2.446120 -158.027252 105 96 82
-5.347416 2.446120 -158.027252 105 98 83
-5.375485 2.420235 -156.355011 103 96 81
-5.374827 2.382419 -153.911957 102 97 82
-5.187954 2.264477 -146.292557 66 63 49
-4.995149 2.147532 -138.737534 45 39 28
-4.821280 2.042073 -131.924530 39 30 21
-3.416795 1.169883 -75.578247 44 22 11
-6.557797 1.963195 -126.828735 66 48 37
-3.938658 1.000929 -64.663231 39 34 33
-3.939190 0.992244 -64.102158 26 18 18
-4.078702 1.000929 -64.663231 32 22 22
-4.095788 0.996567 -64.381470 34 24 24
-4.068598 0.981597 -63.414368 17 9 9
-4.059378 0.971177 -62.741180 25 17 17
-5.608378 1.210118 -78.177505 49 37 33
-5.591536 1.197446 -77.358887 37 25 21
-5.546306 1.178929 -76.162621 33 21 17
-5.558889 1.172883 -75.772041 46 34 28
-2.593370 0.502664 -32.473732 67 47 36
-16.749792 2.858903 -184.694351 68 39 25
-16.849792 2.858903 -184.694351 70 42 31
-4.681913 0.749876 -48.444420 105 97 84
-4.700437 0.748649 -48.365131 105 96 83
-4.688258 0.742572 -47.972557 104 95 82
-4.797331 0.747426 -48.286102 105 96 86
-4.715602 0.730710 -47.206223 106 97 87
-3.506689 0.512808 -33.129032 103 95 82
-3.473996 0.505441 -32.653145 104 96 83
-2.419240 0.323955 -20.928537 103 99 81
-2.430571 0.323955 -20.928537 103 99 80
-2.447102 0.324645 -20.973099 101 97 78
-2.443797 0.321225 -20.752174 98 96 78
-2.455033 0.321225 -20.752174 100 93 78
-2.466269 0.321225 -20.752174 103 96 81
-2.477505 0.321225 -20.752174 106 95 81
-2.488741 0.321225 -20.752174 104 93 79
-2.499977 0.321225 -20.752174 107 93 81
-2.511213 0.321225 -20.752174 104 93 79
-2.522449 0.321225 -20.752174 101 92 78
-2.533684 0.321225 -20.752174 105 96 82
-2.544920 0.321225 -20.752174 102 95 80
-22.849792 2.858903 -184.694351 101 95 82
-16.384134 1.997487 -129.044083 99 92 77
-16.241236 1.971657 -127.375412 103 96 81
-15.899020 1.921951 -124.164268 105 98 83
-32.149792 2.858903 -184.694351 102 93 79
-32.249794 2.858903 -184.694351 102 93 79
-32.349792 2.858903 -184.694351 105 96 82
-32.449791 2.858903 -184.694351 107 98 84
-32.549793 2.858903 -184.694351 105 96 82
-32.649792 2.858903 -184.694351 105 96 83
-32.749794 2.858903 -184.694351 105 98 83
-32.849792 2.858903 -184.694351 102 95 80
-32.949791 2.858903 -184.694351 103 98 83
-33.049793 2.858903 -184.694351 101 96 81
-33.149792 2.858903 -184.694351 100 95 80
-33.249794 2.858903 -184.694351 98 94 76
-33.349792 2.858903 -184.694351 99 95 77
-33.449791 2.858903 -184.694351 103 99 81
-33.549793 2.858903 -184.694351 104 100 82
-33.649792 2.858903 -184.694351 103 99 81
-33.749794 2.858903 -184.694351 100 96 78
-29.133512 2.446120 -158.027252 102 96 77
-28.909878 2.420235 -156.355011 103 97 78
-29.462187 2.459271 -158.876862 104 98 79
-29.390196 2.446120 -158.027252 104 97 80
-29.634230 2.459271 -158.876862 105 96 82
-29.561319 2.446120 -158.027252 103 94 81
-32.511436 2.659444 -171.808701 101 94 79
-32.604458 2.659444 -171.808701 100 96 78
-33.277908 2.706654 -174.858551 102 98 80
-33.176277 2.690732 -173.829971 103 96 81
-35.349792 2.858903 -184.694351 104 97 82
-35.449791 2.858903 -184.694351 102 95 80
-35.549793 2.858903 -184.694351 100 93 78
-24.202391 1.930061 -124.688164 106 97 84
-24.066807 1.913910 -123.644753 101 92 78
4.436943 0.415654 -27.825890 15 12 4
4.392921 0.412932 -27.643682 9 6 0
16.535564 1.737891 -116.342896 18 10 11
15.848611 1.672062 -111.935966 20 9 11
2.762177 0.376321 -25.192749 40 35 34
2.736870 0.374724 -25.085819 34 29 28
12.543346 1.816561 -121.609444 111 93 94
12.128133 1.765698 -118.204384 109 91 90
11.278320 1.659490 -111.094345 113 96 93
16.650208 2.758903 -184.694351 35 15 14
16.550207 2.758903 -184.694351 40 14 14
16.450207 2.758903 -184.694351 44 13 10
16.350208 2.758903 -184.694351 52 14 10
3.072127 0.578538 -38.730137 89 24 16
3.051157 0.578538 -38.730137 89 34 27
3.018320 0.576272 -38.578453 114 67 59
2.430976 0.487762 -32.653145 79 21 16
1.972953 0.426910 -28.579395 76 16 10
1.936874 0.422416 -28.278561 81 21 15
1.912413 0.420404 -28.143900 77 19 13
1.886395 0.418016 -27.983992 74 19 12
1.864182 0.416438 -27.878391 74 19 12
1.843869 0.415263 -27.799713 72 17 8
1.827099 0.414873 -27.773586 73 18 11
1.595884 0.381196 -25.519081 73 16 7
1.580702 0.380867 -25.497063 74 19 10
1.569340 0.384851 -25.763815 75 20 13
1.549985 0.383514 -25.674280 75 19 14
1.530765 0.382186 -25.585363 76 19 17
1.512982 0.381196 -25.519081 72 16 15
1.499165 0.381196 -25.519081 72 16 15
1.484067 0.380867 -25.497063 71 17 16
1.467729 0.380211 -25.453140 71 17 16
1.472964 0.531197 -35.560886 77 22 19
1.446746 0.528652 -35.390533 74 19 16
1.422474 0.526759 -35.263836 72 17 12
1.391755 0.522396 -34.971710 73 18 13
1.356764 0.516286 -34.562687 72 18 11
2.106777 1.471415 -98.503654 105 96 82
1.993635 1.428558 -95.634613 100 91 77
1.437086 1.183444 -79.225456 106 99 79
-1.711254 1.137692 -76.162621 103 96 81
-1.743504 1.131858 -75.772041 102 95 80
-1.811620 1.123217 -75.193626 104 97 82
-1.857058 1.126083 -75.385445 101 94 79
-1.893045 1.123217 -75.193626 99 92 77
-1.923966 1.117530 -74.812897 99 92 77
-1.949665 1.109107 -74.248985 102 95 80
-1.974979 1.100809 -73.693504 107 100 85
-5.049792 2.758903 -184.694351 108 101 86
-4.875543 2.611979 -174.858551 102 95 80
-4.940981 2.596614 -173.829971 111 104 89
-5.064892 2.611979 -174.858551 103 96 81
-5.069574 2.566421 -171.808701 104 97 82
-4.988577 2.479913 -166.017395 104 99 84
-4.939709 2.412155 -161.481400 102 96 85
-4.999819 2.399046 -160.603775 106 100 89
-5.059279 2.386078 -159.735657 103 97 84
-5.118101 2.373250 -158.876862 113 105 92
-5.204122 2.373250 -158.876862 106 97 83
-5.318739 2.386078 -159.735657 103 94 80
-5.405226 2.386078 -159.735657 103 96 81
-5.462187 2.373250 -158.876862 98 92 79
-5.431404 2.323287 -155.532089 76 73 59
-5.187954 2.185270 -146.292557 66 62 51
-4.995149 2.072415 -138.737534 40 35 26
-4.821280 1.970645 -131.924530 37 29 22
-3.443213 1.137692 -76.162621 54 31 23
-6.447117 1.862550 -124.688164 52 36 24
-4.025407 0.937207 -62.741180 25 15 15
-6.394714 1.428558 -95.634613 29 20 16
-6.446495 1.428558 -95.634613 51 43 36
-5.593580 1.164708 -77.971230 41 32 28
-5.576937 1.152544 -77.156906 26 17 13
-5.546306 1.137692 -76.162621 24 15 11
-5.544672 1.128963 -75.578247 45 37 30
-2.551840 0.487223 -32.617104 39 26 18
-2.569500 0.487223 -32.617104 51 36 27
-2.578621 0.485615 -32.509457 73 56 47
-2.599082 0.486150 -32.545261 65 47 36
-4.688258 0.716598 -47.972557 108 98 88
-4.706591 0.715437 -47.894806 103 93 83
-4.786831 0.723647 -48.444420 107 98 89
-4.781705 0.718932 -48.128819 102 93 83
-4.723147 0.706279 -47.281754 105 97 84
-3.510625 0.495426 -33.166214 104 96 83
-3.477839 0.488301 -32.689266 104 96 83
-2.417528 0.312402 -20.913727 101 97 79
-2.425418 0.311961 -20.884167 104 100 81
-2.438449 0.312181 -20.898935 104 100 81
-2.432561 0.309989 -20.752174 101 99 81
-2.443797 0.309989 -20.752174 104 100 82
-2.455033 0.309989 -20.752174 104 97 82
-2.466269 0.309989 -20.752174 106 99 84
-2.477505 0.309989 -20.752174 108 96 84
-2.488741 0.309989 -20.752174 105 93 81
-2.499977 0.309989 -20.752174 109 95 83
-2.511213 0.309989 -20.752174 108 96 84
-2.522449 0.309989 -20.752174 104 95 82
-2.533684 0.309989 -20.752174 103 96 81
-2.544920 0.309989 -20.752174 104 97 82
-22.849792 2.758903 -184.694351 101 95 82
-22.949793 2.758903 -184.694351 103 97 84
-16.455996 1.936072 -129.610062 96 89 74
-16.241236 1.902692 -127.375412 98 91 76
-15.966105 1.862550 -124.688164 100 93 78
-32.249794 2.758903 -184.694351 101 92 78
-32.449791 2.758903 -184.694351 106 97 83
-32.549793 2.758903 -184.694351 105 96 82
-32.649792 2.758903 -184.694351 104 95 82
-32.749794 2.758903 -184.694351 105 96 83
-32.849792 2.758903 -184.694351 101 94 79
-32.949791 2.758903 -184.694351 100 95 80
-33.049793 2.758903 -184.694351 99 94 79
-33.149792 2.758903 -184.694351 100 95 80
-33.249794 2.758903 -184.694351 99 95 77
-33.349792 2.758903 -184.694351 98 94 76
-33.449791 2.758903 -184.694351 102 98 80
-33.549793 2.758903 -184.694351 104 100 82
-33.649792 2.758903 -184.694351 104 100 82
-33.749794 2.758903 -184.694351 102 98 80
-33.849792 2.758903 -184.694351 102 98 79
-30.346184 2.466058 -165.089920 102 98 79
-29.608515 2.399046 -160.603775 104 98 79
-29.376165 2.373250 -158.876862 103 97 78
-29.621443 2.386078 -159.735657 103 97 78
-29.548208 2.373250 -158.876862 105 98 81
-29.794415 2.386078 -159.735657 104 95 81
-29.720251 2.373250 -158.876862 101 92 79
-32.511436 2.566421 -171.808701 101 94 79
-32.229694 2.536922 -169.833878 99 95 77
-33.277908 2.611979 -174.858551 103 99 81
-33.176277 2.596614 -173.829971 103 96 81
-35.349792 2.758903 -184.694351 106 99 84
-35.449791 2.758903 -184.694351 108 101 86
-35.549793 2.758903 -184.694351 106 99 84
4.436943 0.400588 -27.825890 21 15 8
16.733200 1.694918 -117.733452 16 10 11
15.969592 1.623757 -112.790443 18 10 10
5.493460 0.622876 -43.266613 22 15 12
2.759824 0.362372 -25.171291 40 35 34
2.732232 0.360529 -25.043301 37 32 31
6.859983 1.027595 -71.379456 78 66 62
16.650208 2.658903 -184.694351 37 16 15
16.550207 2.658903 -184.694351 40 12 12
16.450207 2.658903 -184.694351 49 14 11
16.350208 2.658903 -184.694351 60 17 14
3.068106 0.556838 -38.679443 83 19 14
3.051157 0.557568 -38.730137 81 23 17
3.018320 0.555384 -38.578453 110 63 55
2.425616 0.469046 -32.581142 84 28 23
1.972953 0.411436 -28.579395 79 19 13
1.936874 0.407105 -28.278561 76 18 12
1.912413 0.405166 -28.143900 72 17 8
1.886395 0.402864 -27.983992 73 20 10
1.864182 0.401344 -27.878391 69 16 6
1.842137 0.399835 -27.773586 67 15 3
1.827099 0.399835 -27.773586 77 24 14
1.595884 0.367379 -25.519081 73 18 9
1.580702 0.367062 -25.497063 73 20 10
1.563886 0.369613 -25.674280 75 21 14
1.540616 0.367379 -25.519081 78 23 18
1.524167 0.366745 -25.475082 79 24 21
1.507774 0.366114 -25.431236 78 21 20
1.492720 0.365799 -25.409369 78 21 20
1.478962 0.365799 -25.409369 77 20 18
1.461435 0.364858 -25.343992 76 19 17
1.437848 0.362372 -25.171291 77 22 19
1.028113 0.298753 -20.752174 71 23 19
0.994405 0.298753 -20.752174 72 25 17
3.539727 1.088042 -75.578247 64 22 17
3.489881 1.085266 -75.385445 61 19 12
1.450220 0.510714 -35.475506 76 21 18
1.422474 0.507666 -35.263836 75 19 14
1.395057 0.504655 -35.054680 75 19 14
1.359945 0.498739 -34.643723 75 20 13
1.333372 0.495833 -34.441837 77 22 15
2.085918 1.404041 -97.528366 104 95 81
1.968157 1.359184 -94.412445 104 95 81
1.421839 1.128447 -78.384872 104 97 78
1.364917 1.116600 -77.561928 101 94 75
-1.726965 1.055644 -73.327782 107 100 85
-1.757943 1.050431 -72.965668 107 100 85
-1.797449 1.050431 -72.965668 106 99 84
-1.841502 1.053031 -73.146278 103 96 81
-1.876461 1.050431 -72.965668 102 95 80
-1.906552 1.045269 -72.607117 107 100 85
-1.941095 1.042707 -72.429153 106 99 84
-5.049792 2.658903 -184.694351 108 101 86
-5.149792 2.658903 -184.694351 113 106 91
-5.249792 2.658903 -184.694351 111 104 89
-5.349792 2.658903 -184.694351 107 100 85
-5.159566 2.517304 -174.858551 100 95 80
-5.132756 2.459101 -170.815582 108 103 88
-5.050094 2.376673 -165.089920 108 102 91
-5.110926 2.363469 -164.172760 105 99 88
-5.142674 2.337497 -162.368652 109 101 88
-5.173732 2.312089 -160.603775 74 65 52
-5.289436 2.324724 -161.481400 83 74 61
-5.406411 2.337497 -162.368652 98 89 76
-5.524678 2.350411 -163.265717 94 86 73
-5.521558 2.312089 -160.603775 58 52 41
-5.489185 2.262896 -157.186676 35 30 21
-5.213765 2.116539 -147.020370 28 25 17
-5.042497 2.016230 -140.052582 27 24 16
-4.886728 1.924997 -133.715363 33 27 22
-3.425556 1.090832 -75.772041 56 34 28
-6.393167 1.780019 -123.644753 31 14 5
-6.499891 1.399423 -97.207550 31 20 16
-6.531039 1.394834 -96.888840 46 35 31
-5.608378 1.125461 -78.177505 40 34 29
-5.606212 1.116600 -77.561928 27 21 16
-2.554659 0.470082 -32.653145 40 29 21
-2.572339 0.470082 -32.653145 43 31 21
-2.581461 0.468529 -32.545261 56 41 32
-2.599082 0.468529 -32.545261 67 50 41
-16.849792 2.658903 -184.694351 64 34 23
-16.949793 2.658903 -184.694351 53 26 16
-4.669865 0.691747 -48.050564 108 99 90
-4.673085 0.688389 -47.817307 100 91 81
-4.691384 0.687277 -47.740059 107 98 88
-4.747913 0.691747 -48.050564 105 96 86
-4.766180 0.690624 -47.972557 102 93 83
-4.723147 0.680679 -47.281754 107 99 86
-3.500525 0.478543 -33.240829 102 96 83
-3.491034 0.474804 -32.981133 100 94 81
-3.473996 0.470082 -32.653145 98 92 79
-3.472491 0.467499 -32.473732 100 94 81
-2.425418 0.300653 -20.884167 103 99 81
-2.435005 0.300441 -20.869417 102 98 80
-2.432561 0.298753 -20.752174 103 98 83
-2.443797 0.298753 -20.752174 103 98 83
-2.455033 0.298753 -20.752174 104 96 83
-2.466269 0.298753 -20.752174 104 96 83
-2.477505 0.298753 -20.752174 106 94 84
-2.488741 0.298753 -20.752174 103 91 81
-2.499977 0.298753 -20.752174 105 93 83
-2.511213 0.298753 -20.752174 106 94 82
-2.522449 0.298753 -20.752174 106 97 84
-2.533684 0.298753 -20.752174 103 95 82
-2.544920 0.298753 -20.752174 106 98 85
-16.528488 1.874116 -130.181046 103 95 82
-16.311544 1.841664 -127.926819 104 96 83
-3.597013 0.315129 -21.889700 98 93 78
-3.587605 0.313273 -21.760748 98 93 78
-32.749794 2.658903 -184.694351 103 94 81
-32.849792 2.658903 -184.694351 100 93 78
-32.949791 2.658903 -184.694351 101 94 79
-33.049793 2.658903 -184.694351 98 93 78
-33.149792 2.658903 -184.694351 100 95 80
-33.249794 2.658903 -184.694351 99 95 77
-33.349792 2.658903 -184.694351 97 93 75
-33.449791 2.658903 -184.694351 101 97 79
-33.549793 2.658903 -184.694351 103 99 81
-33.649792 2.658903 -184.694351 99 95 77
-33.749794 2.658903 -184.694351 99 95 77
-33.849792 2.658903 -184.694351 101 97 79
-29.933884 2.337497 -162.368652 104 97 80
-29.695471 2.312089 -160.603775 103 96 79
-29.621443 2.299592 -159.735657 104 97 80
-29.548208 2.287228 -158.876862 106 99 84
-29.794415 2.299592 -159.735657 104 95 82
-29.720251 2.287228 -158.876862 102 93 80
-32.993885 2.517304 -174.858551 105 98 83
-32.137741 2.444968 -169.833878 102 95 80
-31.155371 2.363469 -164.172760 100 96 78
-32.321648 2.444968 -169.833878 103 99 81
-31.864220 2.403528 -166.955338 100 96 78
-35.349792 2.658903 -184.694351 102 98 80
-35.449791 2.658903 -184.694351 105 98 83
-35.549793 2.658903 -184.694351 103 96 81
4.742891 0.417780 -30.154179 17 8 5
16.867603 1.644275 -118.679100 17 12 13
16.092436 1.574709 -113.658058 17 12 11
7.329587 0.779856 -56.287800 28 24 19
5.493460 0.599450 -43.266613 15 10 9
2.764534 0.349338 -25.214245 35 29 30
2.732232 0.346970 -25.043301 42 34 34
6.893284 0.993749 -71.725960 80 68 62
6.854450 0.993749 -71.725960 84 72 66
6.815615 0.993749 -71.725960 81 69 63
6.647698 0.974820 -70.359749 83 70 68
6.531843 0.963352 -69.531990 70 54 55
16.650208 2.558903 -184.694351 37 13 13
16.550207 2.558903 -184.694351 45 11 11
16.450207 2.558903 -184.694351 56 17 15
16.350208 2.558903 -184.694351 71 23 19
16.250208 2.558903 -184.694351 75 23 17
3.060096 0.534497 -38.578453 81 23 17
3.047164 0.535896 -38.679443 72 18 11
3.018320 0.534497 -38.578453 88 45 36
2.435201 0.449917 -32.473732 80 28 22
2.420279 0.450412 -32.509457 73 21 15
1.972953 0.395962 -28.579395 81 23 17
1.936874 0.391794 -28.278561 83 28 19
1.912413 0.389928 -28.143900 79 28 18
1.886395 0.387713 -27.983992 70 24 13
1.864182 0.386249 -27.878391 71 26 13
1.842137 0.384797 -27.773586 70 25 12
1.827099 0.384797 -27.773586 72 24 12
1.595884 0.353562 -25.519081 72 23 13
1.580702 0.353257 -25.497063 70 21 11
1.559821 0.354787 -25.607534 78 29 21
1.536635 0.352648 -25.453140 69 18 15
1.517625 0.351437 -25.365747 73 20 17
1.497464 0.349935 -25.257347 74 18 17
1.479994 0.349040 -25.192749 76 19 18
1.466354 0.349040 -25.192749 75 18 16
1.451476 0.348743 -25.171291 75 16 14
1.434183 0.347854 -25.107134 76 19 17
1.028113 0.287517 -20.752174 71 23 19
1.005641 0.287517 -20.752174 69 19 13
0.994405 0.287517 -20.752174 70 22 16
3.539727 1.047121 -75.578247 64 24 19
3.489881 1.044450 -75.385445 56 17 9
1.451963 0.492097 -35.518143 75 24 21
1.424173 0.489157 -35.305969 74 22 16
1.396714 0.486252 -35.096313 74 22 16
1.363141 0.481110 -34.725143 76 21 16
1.336487 0.478300 -34.522308 78 24 17
1.311666 0.476075 -34.361740 74 22 15
1.645164 1.153308 -83.242523 108 100 83
1.479982 1.097653 -79.225456 102 95 76
1.421839 1.086007 -78.384872 102 95 76
1.372119 1.080276 -77.971230 103 96 77
1.329903 1.080276 -77.971230 102 96 77
-1.728075 0.993749 -71.725960 104 97 82
-1.771209 0.996167 -71.900475 103 96 81
-1.810138 0.996167 -71.900475 105 98 83
-1.849067 0.996167 -71.900475 106 99 84
-1.874316 0.988948 -71.379456 100 93 78
-1.899201 0.981833 -70.865936 101 94 79
-1.937570 0.981833 -70.865936 106 99 84
-5.149792 2.558903 -184.694351 111 104 89
-5.249792 2.558903 -184.694351 102 95 80
-5.349792 2.558903 -184.694351 109 102 87
-5.449792 2.558903 -184.694351 102 97 82
-5.223334 2.408379 -173.829971 104 98 85
-5.225241 2.366615 -170.815582 103 97 84
-5.317727 2.366615 -170.815582 110 102 89
-5.317993 2.326275 -167.903946 106 97 84
-5.348128 2.300137 -166.017395 46 37 24
-5.499811 2.326275 -167.903946 38 26 14
-5.622667 2.339568 -168.863403 54 42 30
-5.882157 2.408379 -173.829971 60 50 40
-5.644259 2.274580 -164.172760 40 33 24
-5.518539 2.189435 -158.027252 21 15 8
-5.213765 2.036937 -147.020370 21 18 10
-5.018711 1.931247 -139.391968 11 7 2
-4.821280 1.827788 -131.924530 21 17 12
-4.321712 1.568676 -113.222588 60 40 39
-4.316856 1.544998 -111.513565 71 50 48
-3.408079 1.044450 -75.385445 55 33 28
-6.313912 1.691836 -122.111969 26 10 3
-9.749792 2.558903 -184.694351 33 21 15
-9.849792 2.558903 -184.694351 33 23 16
-6.586556 1.364748 -98.503654 29 18 14
-6.595917 1.355710 -97.851311 44 33 29
-5.623254 1.086007 -78.384872 32 28 23
-5.620965 1.077433 -77.766045 29 25 20
-2.572339 0.452403 -32.653145 42 29 21
-2.584307 0.451405 -32.581142 49 34 25
-16.649792 2.558903 -184.694351 57 30 16
-16.749792 2.558903 -184.694351 74 47 33
-16.849792 2.558903 -184.694351 85 55 44
-16.949793 2.558903 -184.694351 62 33 24
-17.049793 2.558903 -184.694351 52 26 19
-17.149792 2.558903 -184.694351 48 29 22
-4.673085 0.662499 -47.817307 110 101 92
-4.691384 0.661429 -47.740059 102 93 83
-4.740206 0.664650 -47.972557 106 98 85
-4.766180 0.664650 -47.972557 104 96 83
-4.730716 0.656129 -47.357525 103 95 82
-3.470815 0.458996 -33.129032 104 98 85
-3.488752 0.458996 -33.129032 105 99 86
-3.487143 0.456437 -32.944366 101 95 82
-3.485551 0.453907 -32.761745 99 93 80
-3.495538 0.452903 -32.689266 102 96 83
-2.427134 0.289551 -20.898935 102 98 80
-2.421325 0.287517 -20.752174 100 96 78
-2.432561 0.287517 -20.752174 104 99 84
-2.443797 0.287517 -20.752174 104 99 84
-2.455033 0.287517 -20.752174 104 96 83
-2.466269 0.287517 -20.752174 106 97 84
-2.477505 0.287517 -20.752174 104 94 84
-2.488741 0.287517 -20.752174 103 91 81
-2.499977 0.287517 -20.752174 105 93 83
-2.511213 0.287517 -20.752174 103 94 81
-2.522449 0.287517 -20.752174 105 97 84
-16.900751 1.844254 -133.113037 108 100 87
-16.454004 1.787880 -129.044083 105 97 84
-3.597013 0.303277 -21.889700 97 92 77
-3.592896 0.301935 -21.792843 100 95 80
-32.849792 2.558903 -184.694351 101 93 80
-32.949791 2.558903 -184.694351 102 95 80
-33.049793 2.558903 -184.694351 98 93 78
-33.149792 2.558903 -184.694351 99 94 79
-33.249794 2.558903 -184.694351 99 95 77
-33.349792 2.558903 -184.694351 99 95 77
-33.449791 2.558903 -184.694351 101 97 79
-33.549793 2.558903 -184.694351 100 96 78
-33.649792 2.558903 -184.694351 103 99 81
-33.749794 2.558903 -184.694351 103 99 81
-33.849792 2.558903 -184.694351 105 101 83
-30.266481 2.274580 -164.172760 105 98 81
-30.021795 2.249585 -162.368652 102 95 80
-29.782429 2.225133 -160.603775 103 96 81
-29.707928 2.213105 -159.735657 104 97 82
-29.794415 2.213105 -159.735657 106 97 84
-29.880901 2.213105 -159.735657 106 97 84
-32.418411 2.380375 -171.808701 102 95 80
-31.593033 2.313133 -166.955338 102 95 80
-30.644627 2.237292 -161.481400 101 97 79
-31.418808 2.287287 -165.089920 102 98 80
-31.160038 2.262013 -163.265717 105 101 83
-35.449791 2.558903 -184.694351 103 96 81
-35.549793 2.558903 -184.694351 101 94 79
4.752590 0.402274 -30.215845 26 14 14
16.935617 1.586389 -119.157646 17 12 13
16.154568 1.519013 -114.096893 17 12 11
7.445151 0.758043 -56.938526 21 16 13
7.357616 0.752246 -56.503052 22 18 17
5.501515 0.576869 -43.330051 14 9 10
4.164551 0.462308 -34.725143 31 19 19
4.121534 0.459608 -34.522308 32 20 20
4.083759 0.457470 -34.361740 30 18 16
2.734549 0.333693 -25.064543 32 26 27
6.871127 0.957237 -71.900475 78 69 60
6.832198 0.957237 -71.900475 81 69 63
6.663564 0.938960 -70.527672 82 70 66
6.516510 0.923532 -69.368767 59 42 45
16.650208 2.458903 -184.694351 45 15 14
16.550207 2.458903 -184.694351 54 15 13
16.450207 2.458903 -184.694351 66 21 18
16.350208 2.458903 -184.694351 81 26 23
16.250208 2.458903 -184.694351 84 26 21
16.150208 2.458903 -184.694351 86 24 18
3.039208 0.513609 -38.578453 75 29 21
3.014385 0.512939 -38.528156 70 31 22
2.427200 0.430914 -32.367027 64 25 16
2.409675 0.430914 -32.367027 69 25 18
1.972953 0.380488 -28.579395 73 20 10
1.936874 0.376483 -28.278561 97 48 38
1.912413 0.374690 -28.143900 108 68 56
1.886395 0.372561 -27.983992 85 50 36
1.864182 0.371155 -27.878391 75 42 27
1.842137 0.369760 -27.773586 68 33 19
1.827099 0.369760 -27.773586 61 24 10
1.595884 0.339745 -25.519081 72 34 22
1.580702 0.339452 -25.497063 67 29 17
1.557122 0.340333 -25.563232 63 22 13
1.533992 0.338284 -25.409369 65 20 16
1.507275 0.335400 -25.192749 67 20 16
1.489824 0.334545 -25.128483 68 17 14
1.050585 0.276281 -20.752174 68 21 17
1.039349 0.276281 -20.752174 70 23 19
1.028113 0.276281 -20.752174 70 22 18
1.016877 0.276281 -20.752174 70 22 16
1.005641 0.276281 -20.752174 70 20 14
0.994405 0.276281 -20.752174 68 20 14
3.539727 1.006201 -75.578247 65 25 20
3.489881 1.003634 -75.385445 69 30 22
3.449064 1.003634 -75.385445 88 51 43
1.820900 0.577716 -43.393681 59 25 19
1.455462 0.474005 -35.603729 66 26 21
1.427585 0.471167 -35.390533 66 24 17
1.398375 0.467806 -35.138046 66 22 15
1.366352 0.463397 -34.806946 68 22 14
1.336487 0.459608 -34.522308 72 22 16
1.314724 0.458537 -34.441837 73 23 17
1.296076 0.458537 -34.441837 69 21 15
1.622315 1.092846 -82.086380 107 98 84
1.531087 1.060443 -79.652550 102 93 79
1.464279 1.043566 -78.384872 104 96 79
1.414336 1.038059 -77.971230 104 96 79
1.364917 1.032610 -77.561928 107 99 82
1.326403 1.035327 -77.766045 105 98 81
-0.477505 0.276281 -20.752174 107 100 85
-0.488741 0.276281 -20.752174 105 98 83
-5.249792 2.458903 -184.694351 106 100 87
-5.349792 2.458903 -184.694351 103 97 84
-5.449792 2.458903 -184.694351 101 95 82
-5.254241 2.327955 -174.858551 102 96 83
-5.317451 2.314261 -173.829971 107 99 86
-5.443590 2.327955 -174.858551 108 101 86
-5.505687 2.314261 -173.829971 79 70 56
-5.599804 2.314261 -173.829971 43 32 18
-5.727614 2.327955 -174.858551 44 31 17
-5.788040 2.314261 -173.829971 39 27 15
-6.249792 2.458903 -184.694351 41 31 21
-5.548209 2.115185 -158.876862 22 19 11
-5.239834 1.967122 -147.755478 15 12 7
-5.018711 1.855776 -139.391968 13 10 6
-4.799852 1.748553 -131.338196 13 10 6
-4.272602 1.490244 -111.935966 41 24 21
-4.268533 1.468002 -110.265282 63 44 39
-3.382195 0.996011 -74.812897 55 35 30
-2.716636 0.738132 -55.442955 30 11 4
-2.726195 0.732634 -55.029972 36 18 11
-2.710562 0.720558 -54.122887 41 23 16
-9.649793 2.458903 -184.694351 31 17 11
-9.749792 2.458903 -184.694351 33 21 17
-9.849792 2.458903 -184.694351 33 22 18
-9.949793 2.458903 -184.694351 23 16 13
-6.586556 1.311415 -98.503654 30 21 17
-6.595917 1.302730 -97.851311 50 38 36
-2.587160 0.434243 -32.617104 48 33 24
-16.349792 2.458903 -184.694351 57 35 24
-16.449793 2.458903 -184.694351 56 31 21
-16.549793 2.458903 -184.694351 55 31 19
-16.649792 2.458903 -184.694351 63 36 22
-16.749792 2.458903 -184.694351 78 51 37
-16.849792 2.458903 -184.694351 79 49 38
-16.949793 2.458903 -184.694351 83 54 45
-17.049793 2.458903 -184.694351 66 41 31
-17.149792 2.458903 -184.694351 51 30 22
-4.680659 0.637641 -47.894806 101 94 85
-4.691384 0.635581 -47.740059 101 93 80
-4.740206 0.638676 -47.972557 103 96 81
-4.766180 0.638676 -47.972557 105 96 82
-4.753570 0.633534 -47.586304 106 99 84
-3.496592 0.442050 -33.203480 101 98 84
-3.502762 0.440565 -33.091934 101 98 84
-3.497182 0.437625 -32.871075 103 97 84
-3.499409 0.435686 -32.725468 103 97 84
-2.927660 0.346935 -26.059168 103 96 81
-2.856630 0.333693 -25.064543 105 101 83
-2.421325 0.276281 -20.752174 103 99 81
-2.432561 0.276281 -20.752174 106 99 84
-2.443797 0.276281 -20.752174 106 99 84
-2.455033 0.276281 -20.752174 106 97 84
-2.466269 0.276281 -20.752174 107 98 85
-2.477505 0.276281 -20.752174 107 97 87
-2.488741 0.276281 -20.752174 105 95 85
-2.499977 0.276281 -20.752174 106 97 84
-2.511213 0.276281 -20.752174 106 97 84
-2.522449 0.276281 -20.752174 105 97 84
-3.599679 0.291642 -21.905928 101 94 77
-3.598203 0.290565 -21.825033 101 94 79
-3.599386 0.289709 -21.760748 104 97 82
-32.949791 2.458903 -184.694351 103 96 81
-33.049793 2.458903 -184.694351 100 93 78
-33.149792 2.458903 -184.694351 100 93 78
-33.249794 2.458903 -184.694351 100 95 80
-33.349792 2.458903 -184.694351 101 96 81
-33.449791 2.458903 -184.694351 102 98 80
-33.549793 2.458903 -184.694351 98 94 76
-33.649792 2.458903 -184.694351 101 96 81
-33.749794 2.458903 -184.694351 102 97 82
-33.849792 2.458903 -184.694351 103 98 83
-31.131239 2.248140 -168.863403 104 97 82
-30.869869 2.222737 -166.955338 102 94 81
-30.614340 2.197902 -165.089920 103 94 81
-30.364458 2.173616 -163.265717 105 96 83
-30.452856 2.173616 -163.265717 106 97 84
-30.541252 2.173616 -163.265717 106 97 84
-32.799805 2.314261 -173.829971 100 93 78
-31.772539 2.235366 -167.903946 101 94 79
-30.644627 2.149860 -161.481400 100 96 78
-31.595320 2.210250 -166.017395 101 97 79
-31.333149 2.185691 -164.172760 104 100 82
-35.349792 2.458903 -184.694351 101 97 79
-35.449791 2.458903 -184.694351 100 93 78
-35.549793 2.458903 -184.694351 99 92 77
4.775544 0.385127 -30.154179 31 19 17
4.757455 0.386310 -30.246771 29 17 17
7.534045 0.732863 -57.380768 31 28 24
7.445151 0.727215 -56.938526 21 16 17
7.357616 0.721653 -56.503052 12 9 11
5.582272 0.559147 -43.779400 18 16 16
5.517696 0.555036 -43.457493 21 18 20
5.470034 0.552598 -43.266613 20 16 22
4.145068 0.441432 -34.562687 47 36 38
6.848862 0.920547 -72.075844 81 70 62
6.663564 0.900774 -70.527672 77 62 59
6.516510 0.885973 -69.368767 50 31 34
16.650208 2.358903 -184.694351 54 16 14
16.550207 2.358903 -184.694351 61 18 15
16.450207 2.358903 -184.694351 71 20 17
16.350208 2.358903 -184.694351 81 23 18
16.250208 2.358903 -184.694351 84 20 15
16.150208 2.358903 -184.694351 85 20 12
16.050207 2.358903 -184.694351 85 23 13
15.950208 2.358903 -184.694351 74 22 10
3.027351 0.490799 -38.427952 67 32 22
3.010460 0.491438 -38.477989 61 29 18
2.419250 0.412035 -32.261021 87 59 48
2.401783 0.412035 -32.261021 58 22 14
2.392150 0.413389 -32.367027 62 25 17
1.971047 0.364661 -28.551783 69 24 13
1.936874 0.361172 -28.278561 75 35 23
1.912413 0.359452 -28.143900 109 78 63
1.888183 0.357748 -28.010517 114 89 73
1.864182 0.356061 -27.878391 109 86 70
1.843869 0.355056 -27.799713 103 78 62
1.827099 0.354722 -27.773586 89 60 45
1.595884 0.325928 -25.519081 99 72 58
1.580702 0.325647 -25.497063 105 78 64
1.557122 0.326492 -25.563232 67 37 26
1.533992 0.324527 -25.409369 61 25 19
1.507275 0.321760 -25.192749 62 22 17
1.489824 0.320939 -25.128483 63 18 14
1.050585 0.265045 -20.752174 67 25 20
1.039349 0.265045 -20.752174 65 20 16
1.028113 0.265045 -20.752174 67 21 14
1.016877 0.265045 -20.752174 70 22 16
1.005641 0.265045 -20.752174 69 21 15
0.994405 0.265045 -20.752174 68 20 14
3.539727 0.965280 -75.578247 63 21 14
3.489881 0.962817 -75.385445 65 26 18
2.190218 0.618729 -48.444420 119 88 79
2.139438 0.611709 -47.894806 115 88 78
1.815568 0.552598 -43.266613 88 65 57
1.761199 0.543057 -42.519562 85 59 52
1.436185 0.454728 -35.603729 81 52 43
1.401708 0.449850 -35.221806 79 47 36
1.372820 0.446656 -34.971710 80 45 35
1.341188 0.442467 -34.643723 80 43 35
1.317796 0.440916 -34.522308 90 51 43
1.699811 1.069191 -83.714149 105 96 82
1.613352 1.042609 -81.632858 107 98 84
1.522877 1.011862 -79.225456 104 95 81
1.460405 0.998477 -78.177505 103 94 80
1.414336 0.995843 -77.971230 103 94 80
1.364917 0.990615 -77.561928 103 95 78
-0.466269 0.265045 -20.752174 106 99 84
-0.477505 0.265045 -20.752174 106 99 84
-0.488741 0.265045 -20.752174 106 99 84
-5.349792 2.358903 -184.694351 104 98 85
-5.449792 2.358903 -184.694351 104 98 85
-5.549792 2.358903 -184.694351 103 97 84
-5.649792 2.358903 -184.694351 100 93 78
-5.749792 2.358903 -184.694351 100 91 77
-5.849792 2.358903 -184.694351 73 62 48
-5.949792 2.358903 -184.694351 44 33 19
-6.049792 2.358903 -184.694351 43 30 16
-6.149792 2.358903 -184.694351 31 20 6
-6.249792 2.358903 -184.694351 29 20 7
-5.578199 2.040132 -159.735657 12 9 1
-5.266165 1.896605 -148.497971 6 6 0
-5.042497 1.788741 -140.052582 9 8 4
-4.842900 1.692486 -132.516129 33 30 26
-4.240477 1.418889 -111.094345 36 22 16
-4.190354 1.382507 -108.245773 41 25 18
-3.339917 0.943561 -73.877739 46 27 22
-2.701824 0.712122 -55.756783 33 13 8
-2.721742 0.709444 -55.547173 33 14 9
-2.731281 0.704150 -55.132641 42 26 20
-2.735613 0.697642 -54.623096 35 18 15
-9.449793 2.358903 -184.694351 29 14 11
-9.549792 2.358903 -184.694351 24 12 8
-9.649793 2.358903 -184.694351 31 19 15
-9.749792 2.358903 -184.694351 27 16 12
-9.849792 2.358903 -184.694351 26 17 14
-9.949793 2.358903 -184.694351 20 13 10
-10.049792 2.358903 -184.694351 15 10 7
-16.249792 2.358903 -184.694351 63 37 30
-16.349792 2.358903 -184.694351 57 31 24
-16.449793 2.358903 -184.694351 48 22 15
-16.549793 2.358903 -184.694351 52 26 14
-16.649792 2.358903 -184.694351 56 29 15
-16.749792 2.358903 -184.694351 72 45 31
-11.508060 1.546821 -121.111046 21 10 6
-4.680659 0.611709 -47.894806 84 77 68
-4.698976 0.610719 -47.817307 101 95 82
-4.747913 0.613698 -48.050564 112 104 87
-4.773930 0.613698 -48.050564 107 99 82
-4.768929 0.609733 -47.740059 100 93 78
-3.510625 0.423596 -33.166214 101 98 84
-3.524626 0.423122 -33.129032 104 98 85
-3.514980 0.419827 -32.871075 100 94 81
-2.932833 0.333414 -26.105207 106 99 84
-2.921162 0.330494 -25.876616 104 97 82
-2.868796 0.321486 -25.171291 102 98 80
-2.870201 0.320123 -25.064543 102 98 80
-2.876452 0.319310 -25.000927 105 101 83
-2.443797 0.265045 -20.752174 105 98 83
-2.455033 0.265045 -20.752174 105 96 83
-2.466269 0.265045 -20.752174 107 98 85
-2.477505 0.265045 -20.752174 108 98 88
-2.488741 0.265045 -20.752174 106 96 86
-2.499977 0.265045 -20.752174 108 99 86
-2.511213 0.265045 -20.752174 107 99 86
-2.522449 0.265045 -20.752174 103 98 83
-33.049793 2.358903 -184.694351 100 93 78
-33.149792 2.358903 -184.694351 100 93 78
-33.249794 2.358903 -184.694351 100 95 80
-33.349792 2.358903 -184.694351 100 95 80
-33.449791 2.358903 -184.694351 101 97 79
-33.549793 2.358903 -184.694351 98 94 76
-33.649792 2.358903 -184.694351 96 91 76
-33.749794 2.358903 -184.694351 96 91 76
-33.849792 2.358903 -184.694351 98 93 78
-33.949791 2.358903 -184.694351 100 95 80
-31.859455 2.207160 -172.813431 102 94 81
-31.767248 2.194328 -171.808701 101 93 80
-32.046589 2.207160 -172.813431 103 94 81
-32.140156 2.207160 -172.813431 105 96 83
-31.861080 2.181644 -170.815582 104 95 82
-32.517452 2.220144 -173.829971 102 93 80
-32.323509 2.181644 -170.815582 99 92 77
-30.983242 2.085218 -163.265717 97 93 75
-32.508480 2.181644 -170.815582 100 96 78
-31.864220 2.132341 -166.955338 102 98 80
-35.349792 2.358903 -184.694351 103 99 81
-35.449791 2.358903 -184.694351 104 97 82
-35.549793 2.358903 -184.694351 103 96 81
-35.649792 2.358903 -184.694351 103 96 81
4.785310 0.369555 -30.215845 24 11 9
4.793457 0.371454 -30.371117 38 24 25
4.757455 0.369933 -30.246771 42 28 29
4.662660 0.365075 -29.849592 29 16 18
7.578190 0.705907 -57.716984 13 11 10
7.445151 0.696386 -56.938526 9 6 8
7.357616 0.691060 -56.503052 12 11 15
5.582272 0.535444 -43.779400 17 16 18
5.517696 0.531507 -43.457493 15 14 18
5.478055 0.529948 -43.330051 18 16 22
4.134766 0.419773 -34.321831 27 20 23
4.125766 0.420750 -34.401741 27 20 25
6.679505 0.864652 -70.696404 63 49 43
6.516510 0.848414 -69.368767 40 22 23
16.650208 2.258903 -184.694351 59 15 14
16.550207 2.258903 -184.694351 67 18 16
16.450207 2.258903 -184.694351 75 20 17
16.350208 2.258903 -184.694351 83 19 15
16.250208 2.258903 -184.694351 86 18 13
16.150208 2.258903 -184.694351 88 18 11
16.050207 2.258903 -184.694351 85 23 13
3.019498 0.468774 -38.328270 99 80 65
3.006545 0.469993 -38.427952 83 62 47
2.436718 0.394568 -32.261021 109 96 80
2.416612 0.394138 -32.225842 103 87 71
2.396550 0.393709 -32.190735 91 67 55
2.384316 0.394568 -32.261021 67 39 28
1.969144 0.348865 -28.524223 73 38 25
1.936874 0.345861 -28.278561 58 26 13
1.912413 0.344214 -28.143900 86 65 50
1.888183 0.342582 -28.010517 103 88 72
1.864182 0.340966 -27.878391 101 88 72
1.843869 0.340004 -27.799713 104 89 73
1.828818 0.340004 -27.799713 115 94 79
1.597263 0.312381 -25.541138 105 89 76
1.582067 0.312111 -25.519081 109 93 80
1.557122 0.312651 -25.563232 102 80 68
1.533992 0.310769 -25.409369 71 43 36
1.507275 0.308120 -25.192749 67 35 29
1.489824 0.307334 -25.128483 62 24 19
1.050585 0.253809 -20.752174 79 42 34
1.039349 0.253809 -20.752174 60 18 11
