ply
format ascii 1.0
element vertex 1142
property float x
property float y
property float z
property uchar red
property uchar green
property uchar blue
end_header
-10.238218 6.038708 -72.531845 134 127 118
-10.288218 6.038708 -72.531845 134 128 117
-10.338219 6.038708 -72.531845 138 132 121
-0.389317 6.893477 -83.489891 128 126 115
-0.446871 6.893477 -83.489891 131 129 118
-0.504425 6.893477 -83.489891 129 127 116
-0.561979 6.893477 -83.489891 128 126 115
-1.290652 6.242301 -75.603226 127 123 112
-1.338409 6.222034 -75.357758 130 126 115
-1.428393 6.162015 -74.630836 130 128 117
-1.479839 6.162015 -74.630836 129 127 116
-1.531286 6.162015 -74.630836 128 126 115
-1.634180 6.162015 -74.630836 132 128 117
-10.138219 5.988708 -72.531845 135 131 120
-10.188219 5.988708 -72.531845 131 127 116
-10.238218 5.988708 -72.531845 132 128 117
-10.288218 5.988708 -72.531845 134 130 119
-10.338219 5.988708 -72.531845 129 125 114
-0.561979 6.835923 -83.489891 130 128 117
-1.290652 6.190184 -75.603226 129 125 114
-1.342769 6.190184 -75.603226 133 129 118
-1.394886 6.190184 -75.603226 132 128 117
-8.952876 23.754833 -290.127380 128 123 114
-7.014290 6.420225 -78.412804 129 127 117
-10.138219 5.938708 -72.531845 135 131 120
-10.188219 5.938708 -72.531845 131 127 116
-10.238218 5.938708 -72.531845 132 128 117
-10.288218 5.938708 -72.531845 129 125 114
-10.338219 5.938708 -72.531845 129 125 114
-1.290652 6.138067 -75.603226 130 126 115
-1.342769 6.138067 -75.603226 131 129 118
-1.394886 6.138067 -75.603226 130 128 117
-8.752876 23.554832 -290.127380 130 125 116
-8.952876 23.554832 -290.127380 130 125 116
-9.152876 23.554832 -290.127380 130 125 116
-9.352877 23.554832 -290.127380 132 127 118
-9.552876 23.554832 -290.127380 130 124 117
-9.752876 23.554832 -290.127380 133 127 120
-9.952876 23.554832 -290.127380 127 121 114
-6.960237 6.366171 -78.412804 133 128 119
-7.014290 6.366171 -78.412804 131 129 118
-10.188219 5.888708 -72.531845 131 127 116
-10.238218 5.888708 -72.531845 132 128 117
-10.288218 5.888708 -72.531845 130 126 115
-10.338219 5.888708 -72.531845 127 123 112
-1.238534 6.085950 -75.603226 131 127 116
-1.290652 6.085950 -75.603226 129 125 114
-1.342769 6.085950 -75.603226 129 127 116
-1.394886 6.085950 -75.603226 129 127 116
-8.752876 23.354832 -290.127380 130 125 116
-8.952876 23.354832 -290.127380 133 128 119
-9.152876 23.354832 -290.127380 132 127 118
-9.752876 23.354832 -290.127380 126 120 113
-7.014290 6.312117 -78.412804 129 127 116
-10.238218 5.838708 -72.531845 132 128 117
-1.290652 6.033833 -75.603226 130 126 115
-9.752876 23.154833 -290.127380 131 126 117
-6.960237 6.258063 -78.412804 133 131 121
-7.014290 6.258063 -78.412804 134 130 119
-1.290652 5.981715 -75.603226 133 129 118
-7.014290 6.204009 -78.412804 131 127 116
-2.538219 5.688708 -72.531845 132 127 118
-2.588219 5.688708 -72.531845 131 126 117
-2.488219 5.638708 -72.531845 129 124 115
-2.538219 5.638708 -72.531845 128 123 114
-2.588219 5.638708 -72.531845 131 126 117
-56.552876 22.554832 -290.127380 133 126 117
-56.752876 22.554832 -290.127380 132 126 115
-56.952873 22.554832 -290.127380 133 127 116
-57.152874 22.554832 -290.127380 133 127 114
-57.352875 22.554832 -290.127380 128 122 109
-57.552876 22.554832 -290.127380 125 119 106
-57.752876 22.554832 -290.127380 134 128 115
-2.488219 5.588708 -72.531845 132 130 119
-2.538219 5.588708 -72.531845 129 127 116
-56.552876 22.354832 -290.127380 131 127 116
-56.752876 22.354832 -290.127380 133 127 116
-56.952873 22.354832 -290.127380 133 127 116
-57.152874 22.354832 -290.127380 132 128 117
-57.352875 22.354832 -290.127380 129 125 114
-57.552876 22.354832 -290.127380 129 126 112
-57.752876 22.354832 -290.127380 128 125 111
-57.952873 22.354832 -290.127380 126 123 109
-2.488219 5.538708 -72.531845 130 128 117
-56.552876 22.154833 -290.127380 133 129 118
-56.752876 22.154833 -290.127380 135 129 118
-56.952873 22.154833 -290.127380 134 128 117
-57.152874 22.154833 -290.127380 131 127 116
-57.352875 22.154833 -290.127380 130 126 115
-57.552876 22.154833 -290.127380 130 127 113
-57.752876 22.154833 -290.127380 129 126 112
-57.952873 22.154833 -290.127380 128 125 111
-2.488219 5.488708 -72.531845 127 125 115
-56.752876 21.954832 -290.127380 135 129 118
-56.952873 21.954832 -290.127380 135 129 118
-57.152874 21.954832 -290.127380 131 125 114
-57.352875 21.954832 -290.127380 132 126 115
-57.552876 21.954832 -290.127380 129 125 114
-57.752876 21.954832 -290.127380 129 125 114
-57.952873 21.954832 -290.127380 131 127 116
-2.488219 5.438708 -72.531845 127 125 115
-2.538219 5.438708 -72.531845 126 124 114
-56.752876 21.754833 -290.127380 132 126 115
-56.952873 21.754833 -290.127380 134 128 117
-57.152874 21.754833 -290.127380 130 124 113
-57.352875 21.754833 -290.127380 133 127 116
-57.752876 21.754833 -290.127380 130 126 115
-2.488219 5.388708 -72.531845 132 126 119
-2.538219 5.388708 -72.531845 129 123 116
-56.552876 21.554832 -290.127380 132 128 117
-56.752876 21.554832 -290.127380 132 126 115
-56.952873 21.554832 -290.127380 132 126 115
-57.152874 21.554832 -290.127380 133 127 116
-57.352875 21.554832 -290.127380 135 129 118
-57.552876 21.554832 -290.127380 133 129 118
-57.752876 21.554832 -290.127380 132 128 117
-2.438219 5.338708 -72.531845 134 128 121
-2.488219 5.338708 -72.531845 133 127 120
-2.538219 5.338708 -72.531845 132 126 119
-56.752876 21.354832 -290.127380 134 128 117
-56.952873 21.354832 -290.127380 133 127 116
-57.152874 21.354832 -290.127380 135 129 118
-57.352875 21.354832 -290.127380 136 130 119
-57.552876 21.354832 -290.127380 134 130 119
-57.752876 21.354832 -290.127380 133 129 118
21.871191 13.431640 -184.207855 120 118 110
21.744207 13.431640 -184.207855 121 119 111
-56.752876 21.154833 -290.127380 134 128 117
-56.952873 21.154833 -290.127380 135 129 118
-57.152874 21.154833 -290.127380 135 129 118
-57.352875 21.154833 -290.127380 134 128 117
-57.552876 21.154833 -290.127380 135 129 118
21.871191 13.304655 -184.207855 120 118 110
-56.752876 20.954832 -290.127380 132 126 115
-56.952873 20.954832 -290.127380 137 131 120
-57.152874 20.954832 -290.127380 135 129 118
-57.352875 20.954832 -290.127380 133 127 116
-57.552876 20.954832 -290.127380 135 129 118
21.871191 13.177671 -184.207855 121 119 111
-56.752876 20.754833 -290.127380 137 131 120
-56.952873 20.754833 -290.127380 134 128 117
-57.152874 20.754833 -290.127380 135 129 118
-57.352875 20.754833 -290.127380 138 132 121
-57.552876 20.754833 -290.127380 133 127 116
-57.752876 20.754833 -290.127380 135 129 118
21.871191 13.050687 -184.207855 124 122 114
21.744207 13.050687 -184.207855 123 121 113
21.790159 13.155093 -185.681519 124 122 112
21.662161 13.155093 -185.681519 123 121 111
21.534161 13.155093 -185.681519 125 123 113
21.578791 13.261182 -187.178940 122 120 110
21.449759 13.261182 -187.178940 126 121 112
-56.752876 20.554832 -290.127380 133 127 116
-56.952873 20.554832 -290.127380 131 125 114
-57.152874 20.554832 -290.127380 134 128 117
-57.352875 20.554832 -290.127380 136 130 119
-57.552876 20.554832 -290.127380 135 129 118
21.744207 12.923703 -184.207855 121 119 111
21.790159 13.027093 -185.681519 123 121 111
21.662161 13.027093 -185.681519 124 120 109
21.534161 13.027093 -185.681519 125 120 111
21.578791 13.132150 -187.178940 123 118 109
21.449759 13.132150 -187.178940 125 119 112
21.320726 13.132150 -187.178940 124 119 110
-56.752876 20.354832 -290.127380 132 126 115
-56.952873 20.354832 -290.127380 130 124 113
-57.152874 20.354832 -290.127380 131 125 114
-57.352875 20.354832 -290.127380 134 128 117
-57.552876 20.354832 -290.127380 136 130 119
21.744207 12.796719 -184.207855 121 118 110
21.662161 12.899093 -185.681519 122 118 107
21.449759 13.003118 -187.178940 124 118 111
-56.752876 20.154833 -290.127380 133 127 116
-56.952873 20.154833 -290.127380 129 123 112
-57.152874 20.154833 -290.127380 130 124 113
-57.352875 20.154833 -290.127380 133 127 116
-57.552876 20.154833 -290.127380 135 129 118
21.449759 12.874085 -187.178940 123 121 111
-57.152874 19.954832 -290.127380 131 125 114
21.624147 12.848672 -188.700729 123 123 111
-57.152874 19.754833 -290.127380 135 129 118
21.754229 12.718590 -188.700729 122 121 107
21.624147 12.718590 -188.700729 124 124 110
-57.152874 19.554832 -290.127380 136 130 119
21.754229 12.588509 -188.700729 122 120 109
21.624147 12.588509 -188.700729 124 124 112
21.754229 12.458427 -188.700729 124 121 113
21.624147 12.458427 -188.700729 123 120 112
3.573451 4.323828 -74.871582 30 16 40
3.521838 4.323828 -74.871582 45 19 37
3.470226 4.323828 -74.871582 55 19 31
3.573451 4.272215 -74.871582 29 19 42
3.521838 4.272215 -74.871582 33 14 35
3.470226 4.272215 -74.871582 42 16 30
3.521838 4.220602 -74.871582 32 16 34
3.470226 4.220602 -74.871582 40 17 32
-0.922566 8.397281 -152.698608 129 123 116
-16.088219 3.988708 -72.531845 26 23 18
-16.138218 3.988708 -72.531845 116 113 105
-16.188219 3.988708 -72.531845 133 126 117
-16.238218 3.988708 -72.531845 122 116 105
-16.288219 3.988708 -72.531845 93 85 72
-0.922566 8.292017 -152.698608 131 123 116
-1.034636 8.346931 -153.709869 131 123 116
-16.138218 3.938708 -72.531845 130 128 118
-16.188219 3.938708 -72.531845 123 117 106
-16.238218 3.938708 -72.531845 97 88 75
-16.288219 3.938708 -72.531845 81 70 56
-16.338219 3.938708 -72.531845 66 55 41
-16.388218 3.938708 -72.531845 64 54 37
-0.922566 8.186754 -152.698608 131 124 115
-1.034636 8.240971 -153.709869 131 124 115
-1.140597 8.240971 -153.709869 133 126 117
-16.138218 3.888708 -72.531845 126 122 111
-16.188219 3.888708 -72.531845 95 88 73
-16.238218 3.888708 -72.531845 73 62 48
-16.288219 3.888708 -72.531845 78 65 51
-16.338219 3.888708 -72.531845 68 52 39
-0.922566 8.081491 -152.698608 129 122 113
-1.140597 8.135011 -153.709869 134 127 118
-16.138218 3.838708 -72.531845 92 86 73
-16.188219 3.838708 -72.531845 71 63 46
-16.238218 3.838708 -72.531845 75 65 48
-16.288219 3.838708 -72.531845 67 51 38
-16.338219 3.838708 -72.531845 72 55 42
-0.922566 7.976228 -152.698608 126 121 112
-1.140597 8.029050 -153.709869 132 127 118
-16.138218 3.788708 -72.531845 74 65 51
-16.188219 3.788708 -72.531845 69 62 43
-16.238218 3.788708 -72.531845 65 53 35
-16.288219 3.788708 -72.531845 65 50 34
-0.817303 7.870965 -152.698608 125 120 111
-0.922566 7.870965 -152.698608 128 123 114
-1.034636 7.923090 -153.709869 130 125 116
-1.140597 7.923090 -153.709869 129 124 115
-16.138218 3.738708 -72.531845 63 55 38
-0.817303 7.765701 -152.698608 126 122 111
-0.922566 7.765701 -152.698608 128 124 113
-1.034636 7.817130 -153.709869 129 125 114
5.047124 14.354833 -290.127380 48 17 24
5.047124 14.154833 -290.127380 45 14 21
4.847124 14.154833 -290.127380 51 18 25
5.047124 13.954832 -290.127380 52 19 26
4.847124 13.954832 -290.127380 48 17 24
5.047124 13.754832 -290.127380 56 23 30
4.847124 13.754832 -290.127380 48 17 24
-0.488219 3.338708 -72.531845 106 100 93
-0.538219 3.338708 -72.531845 121 116 107
4.247124 13.154833 -290.127380 53 26 30
2.647124 13.154833 -290.127380 131 100 91
2.447124 13.154833 -290.127380 136 124 112
-0.438219 3.288708 -72.531845 116 108 101
-0.488219 3.288708 -72.531845 119 113 106
-0.538219 3.288708 -72.531845 121 116 107
4.447124 12.954832 -290.127380 40 13 17
4.247124 12.954832 -290.127380 49 25 27
2.847124 12.954832 -290.127380 80 32 28
2.647124 12.954832 -290.127380 103 63 58
2.447124 12.954832 -290.127380 139 118 110
2.247124 12.954832 -290.127380 133 124 111
-0.288219 3.238708 -72.531845 104 95 91
-0.438219 3.238708 -72.531845 130 122 115
-0.488219 3.238708 -72.531845 129 123 116
-0.538219 3.238708 -72.531845 129 123 116
17.953157 7.672080 -174.512695 125 116 112
17.832857 7.672080 -174.512695 127 118 115
17.712557 7.672080 -174.512695 130 121 117
4.447124 12.754832 -290.127380 49 20 23
4.247124 12.754832 -290.127380 46 19 22
2.847124 12.754832 -290.127380 79 28 26
2.647124 12.754832 -290.127380 84 36 34
2.447124 12.754832 -290.127380 118 81 77
2.247124 12.754832 -290.127380 137 114 106
-0.288219 3.188708 -72.531845 122 117 108
-0.388219 3.188708 -72.531845 128 124 113
-0.438219 3.188708 -72.531845 129 125 114
-0.488219 3.188708 -72.531845 127 125 115
-0.538219 3.188708 -72.531845 126 124 114
17.953157 7.551779 -174.512695 126 117 113
17.832857 7.551779 -174.512695 128 116 114
17.712557 7.551779 -174.512695 127 118 114
4.247124 12.554832 -290.127380 46 17 20
2.847124 12.554832 -290.127380 89 37 37
2.647124 12.554832 -290.127380 81 31 31
2.447124 12.554832 -290.127380 93 47 46
2.247124 12.554832 -290.127380 127 95 90
-0.288219 3.138708 -72.531845 130 126 115
-0.338219 3.138708 -72.531845 126 126 110
-0.388219 3.138708 -72.531845 126 125 111
-0.438219 3.138708 -72.531845 127 126 112
-0.488219 3.138708 -72.531845 128 126 115
-0.538219 3.138708 -72.531845 127 125 115
17.953157 7.431478 -174.512695 128 119 115
17.832857 7.431478 -174.512695 127 118 114
17.712557 7.431478 -174.512695 125 116 112
4.247124 12.354833 -290.127380 48 17 20
4.047124 12.354833 -290.127380 46 17 20
3.847124 12.354833 -290.127380 52 21 22
3.647124 12.354833 -290.127380 52 18 19
3.447124 12.354833 -290.127380 58 20 20
3.047124 12.354833 -290.127380 80 31 33
2.847124 12.354833 -290.127380 92 42 44
2.647124 12.354833 -290.127380 81 31 31
2.447124 12.354833 -290.127380 77 31 30
2.247124 12.354833 -290.127380 98 63 59
-0.288219 3.088708 -72.531845 130 127 113
-0.338219 3.088708 -72.531845 127 124 109
-0.388219 3.088708 -72.531845 126 123 109
-0.438219 3.088708 -72.531845 128 125 111
-0.488219 3.088708 -72.531845 129 125 114
3.261781 3.038708 -72.531845 32 15 24
2.647124 12.154833 -290.127380 91 42 44
2.447124 12.154833 -290.127380 91 42 44
2.247124 12.154833 -290.127380 103 65 63
2.047124 12.154833 -290.127380 133 111 106
-0.288219 3.038708 -72.531845 128 125 111
-0.338219 3.038708 -72.531845 129 126 111
-0.388219 3.038708 -72.531845 129 126 112
-0.438219 3.038708 -72.531845 126 123 109
-0.488219 3.038708 -72.531845 124 120 109
3.361781 2.988708 -72.531845 25 27 38
3.311781 2.988708 -72.531845 23 22 32
3.261781 2.988708 -72.531845 28 21 28
2.647124 11.954832 -290.127380 74 24 28
2.447124 11.954832 -290.127380 92 42 46
2.247124 11.954832 -290.127380 99 57 58
2.047124 11.954832 -290.127380 136 108 107
-0.338219 2.988708 -72.531845 130 127 113
-0.388219 2.988708 -72.531845 130 127 113
-0.438219 2.988708 -72.531845 126 123 109
-0.488219 2.988708 -72.531845 126 120 107
3.361781 2.938708 -72.531845 18 24 35
3.311781 2.938708 -72.531845 19 24 33
3.261781 2.938708 -72.531845 19 21 29
2.647124 11.754832 -290.127380 75 28 31
2.447124 11.754832 -290.127380 76 28 34
2.247124 11.754832 -290.127380 94 51 54
2.047124 11.754832 -290.127380 120 85 89
3.361781 2.888708 -72.531845 19 25 36
3.311781 2.888708 -72.531845 12 21 31
3.261781 2.888708 -72.531845 19 26 35
2.447124 11.554832 -290.127380 75 26 34
2.247124 11.554832 -290.127380 85 39 45
2.047124 11.554832 -290.127380 94 53 60
1.847124 11.554832 -290.127380 104 68 74
2.447124 11.354833 -290.127380 71 24 32
2.247124 11.354833 -290.127380 75 31 38
2.047124 11.354833 -290.127380 73 31 38
1.847124 11.354833 -290.127380 64 26 32
2.447124 11.154833 -290.127380 70 27 36
2.247124 11.154833 -290.127380 70 28 35
2.047124 11.154833 -290.127380 72 30 37
4.127749 2.901381 -82.893532 22 33 61
4.127749 2.844238 -82.893532 31 35 63
4.070607 2.844238 -82.893532 30 40 64
4.184893 2.787095 -82.893532 40 37 63
4.127749 2.787095 -82.893532 31 35 60
4.070607 2.787095 -82.893532 31 38 63
-7.552876 9.754832 -290.127380 125 121 110
-7.752876 9.754832 -290.127380 120 119 105
4.184893 2.729952 -82.893532 24 30 53
4.127749 2.729952 -82.893532 27 35 58
4.070607 2.729952 -82.893532 20 28 51
4.013464 2.729952 -82.893532 22 29 54
-7.152876 9.554832 -290.127380 119 103 97
-7.352876 9.554832 -290.127380 101 82 77
-7.552876 9.554832 -290.127380 112 95 86
-7.752876 9.554832 -290.127380 129 114 105
-7.952876 9.554832 -290.127380 132 123 113
-8.152876 9.554832 -290.127380 133 126 117
-8.352877 9.554832 -290.127380 138 128 121
-8.552876 9.554832 -290.127380 126 114 108
4.184893 2.672809 -82.893532 31 42 64
4.127749 2.672809 -82.893532 30 40 64
4.070607 2.672809 -82.893532 25 35 59
4.013464 2.672809 -82.893532 26 36 60
-7.352876 9.354833 -290.127380 68 43 39
-7.552876 9.354833 -290.127380 75 46 41
-7.752876 9.354833 -290.127380 105 82 74
-7.952876 9.354833 -290.127380 130 117 109
-8.152876 9.354833 -290.127380 135 125 118
-8.352877 9.354833 -290.127380 134 123 119
-8.552876 9.354833 -290.127380 118 107 103
-7.752876 9.154833 -290.127380 88 58 53
-8.152876 9.154833 -290.127380 126 110 104
-19.125397 2.642968 -87.585617 23 17 18
-19.185774 2.642968 -87.585617 20 12 12
-19.246151 2.642968 -87.585617 26 16 16
-19.306528 2.642968 -87.585617 30 18 18
-19.366905 2.642968 -87.585617 30 18 18
-19.427282 2.642968 -87.585617 31 18 16
-19.487659 2.642968 -87.585617 38 25 23
-19.185774 2.582591 -87.585617 19 9 9
-19.366905 2.582591 -87.585617 33 21 19
18.247124 7.754832 -290.127380 41 52 79
-13.546414 4.278528 -160.070267 98 34 29
17.946753 5.165698 -198.377686 123 121 110
18.647123 7.554832 -290.127380 51 59 88
18.447124 7.554832 -290.127380 39 50 78
18.247124 7.554832 -290.127380 38 46 75
-13.512098 4.226480 -162.309021 102 34 29
-13.623987 4.226480 -162.309021 98 31 28
-13.546414 4.168183 -160.070267 97 30 27
-13.656759 4.168183 -160.070267 96 30 25
18.083504 5.028945 -198.377686 122 120 110
17.946753 5.028945 -198.377686 119 117 106
20.047123 7.354833 -290.127380 56 60 95
19.447124 7.354833 -290.127380 59 61 96
18.847124 7.354833 -290.127380 51 54 85
18.647123 7.354833 -290.127380 48 53 84
18.447124 7.354833 -290.127380 29 37 67
18.247124 7.354833 -290.127380 30 38 67
-13.512098 4.114592 -162.309021 102 34 29
-13.623987 4.114592 -162.309021 104 36 31
-13.546414 4.057838 -160.070267 104 36 31
-13.656759 4.057838 -160.070267 100 32 27
18.083504 4.892193 -198.377686 122 120 110
17.946753 4.892193 -198.377686 121 119 109
20.047123 7.154832 -290.127380 48 50 84
19.447124 7.154832 -290.127380 56 57 91
19.247124 7.154832 -290.127380 52 53 87
19.047123 7.154832 -290.127380 49 51 85
18.847124 7.154832 -290.127380 48 51 82
18.447124 7.154832 -290.127380 29 35 64
5.060654 2.201487 -89.269958 33 38 63
-13.512098 4.002704 -162.309021 100 32 27
-13.623987 4.002704 -162.309021 104 36 31
-13.546414 3.947494 -160.070267 104 39 31
-13.656759 3.947494 -160.070267 102 37 29
-13.767104 3.947494 -160.070267 99 34 26
17.946753 4.755441 -198.377686 124 121 113
20.047123 6.954833 -290.127380 53 55 86
19.447124 6.954833 -290.127380 54 56 87
19.247124 6.954833 -290.127380 46 48 79
19.047123 6.954833 -290.127380 48 50 81
18.847124 6.954833 -290.127380 47 49 79
5.060654 2.139948 -89.269958 41 46 71
-13.512098 3.890815 -162.309021 99 31 24
-13.623987 3.890815 -162.309021 99 31 24
-13.546414 3.837149 -160.070267 99 34 25
-13.656759 3.837149 -160.070267 99 34 26
-13.767104 3.837149 -160.070267 99 34 25
17.946753 4.618689 -198.377686 123 118 115
20.247124 6.754832 -290.127380 67 71 96
20.047123 6.754832 -290.127380 65 66 94
19.847124 6.754832 -290.127380 65 66 94
19.647123 6.754832 -290.127380 66 66 96
19.447124 6.754832 -290.127380 64 64 94
19.247124 6.754832 -290.127380 55 56 84
19.047123 6.754832 -290.127380 58 61 89
5.060654 2.078410 -89.269958 40 42 72
4.999115 2.078410 -89.269958 38 40 70
-8.425446 1.850639 -79.486954 104 36 31
-8.480240 1.850639 -79.486954 100 36 31
20.247124 6.554832 -290.127380 73 77 102
20.047123 6.554832 -290.127380 66 70 95
19.847124 6.554832 -290.127380 67 68 94
19.647123 6.554832 -290.127380 68 69 97
19.447124 6.554832 -290.127380 61 62 90
19.247124 6.554832 -290.127380 65 66 92
19.047123 6.554832 -290.127380 61 65 90
5.060654 2.016871 -89.269958 47 49 79
4.999115 2.016871 -89.269958 50 52 82
-4.962533 3.405108 -150.715515 60 20 21
-8.425446 1.795845 -79.486954 101 33 28
-8.480240 1.795845 -79.486954 94 28 23
20.247124 6.354833 -290.127380 70 73 101
20.047123 6.354833 -290.127380 73 76 104
19.847124 6.354833 -290.127380 71 74 102
19.647123 6.354833 -290.127380 67 70 98
19.447124 6.354833 -290.127380 70 73 101
19.247124 6.354833 -290.127380 62 66 91
19.047123 6.354833 -290.127380 65 70 95
5.060654 1.955333 -89.269958 54 58 83
-4.962533 3.301212 -150.715515 64 26 24
-8.425446 1.741050 -79.486954 102 37 29
-8.480240 1.741050 -79.486954 100 37 29
-8.535034 1.741050 -79.486954 96 34 26
20.247124 6.154833 -290.127380 73 75 99
20.047123 6.154833 -290.127380 71 75 100
19.847124 6.154833 -290.127380 76 80 105
19.647123 6.154833 -290.127380 70 74 99
19.447124 6.154833 -290.127380 68 73 98
19.247124 6.154833 -290.127380 65 70 95
19.047123 6.154833 -290.127380 67 72 97
-4.962533 3.197316 -150.715515 58 25 22
-5.066429 3.197316 -150.715515 52 19 16
20.247124 5.954833 -290.127380 80 82 100
20.047123 5.954833 -290.127380 77 78 98
19.847124 5.954833 -290.127380 80 84 103
19.647123 5.954833 -290.127380 74 77 98
19.447124 5.954833 -290.127380 71 76 97
19.247124 5.954833 -290.127380 69 75 98
19.047123 5.954833 -290.127380 67 72 97
-4.962533 3.093420 -150.715515 50 20 15
-5.066429 3.093420 -150.715515 47 17 12
20.047123 5.754833 -290.127380 78 79 93
19.847124 5.754833 -290.127380 77 77 93
19.647123 5.754833 -290.127380 74 77 92
19.447124 5.754833 -290.127380 76 80 98
19.247124 5.754833 -290.127380 74 80 99
-5.066429 2.989524 -150.715515 48 19 14
19.447124 5.554833 -290.127380 70 74 85
-5.066429 2.885628 -150.715515 50 21 17
-5.170325 2.885628 -150.715515 47 20 16
19.447124 5.354833 -290.127380 80 83 91
19.447124 5.154833 -290.127380 98 100 101
19.047123 5.154833 -290.127380 64 66 76
19.447124 4.954833 -290.127380 112 110 109
19.247124 4.954833 -290.127380 96 95 97
19.047123 4.954833 -290.127380 78 81 85
18.847124 4.954833 -290.127380 66 68 76
18.647123 4.954833 -290.127380 66 68 79
19.647123 4.754833 -290.127380 126 123 115
19.447124 4.754833 -290.127380 123 120 115
19.247124 4.754833 -290.127380 122 121 117
19.047123 4.754833 -290.127380 116 117 115
19.847124 4.554833 -290.127380 126 121 112
19.647123 4.554833 -290.127380 120 118 108
19.847124 4.354833 -290.127380 128 123 114
19.647123 4.354833 -290.127380 125 121 110
19.847124 4.154833 -290.127380 127 122 113
19.647123 4.154833 -290.127380 118 114 103
35.847126 1.354833 -290.127380 0 0 0
35.647125 1.354833 -290.127380 3 1 0
6.261781 0.338708 -72.531845 119 117 107
6.211781 0.338708 -72.531845 122 120 110
35.847126 1.154833 -290.127380 0 0 0
35.647125 1.154833 -290.127380 2 0 0
35.447124 1.154833 -290.127380 7 5 4
6.411781 0.288708 -72.531845 122 120 110
6.361781 0.288708 -72.531845 121 119 109
6.311781 0.288708 -72.531845 120 119 109
6.261781 0.288708 -72.531845 121 120 110
6.211781 0.288708 -72.531845 119 118 108
36.047127 0.954833 -290.127380 0 0 0
35.847126 0.954833 -290.127380 0 0 0
35.647125 0.954833 -290.127380 2 0 0
35.447124 0.954833 -290.127380 6 4 3
35.247124 0.954833 -290.127380 4 0 0
35.047127 0.954833 -290.127380 123 120 116
34.847126 0.954833 -290.127380 115 111 106
34.647125 0.954833 -290.127380 120 117 109
6.461782 0.238708 -72.531845 117 115 105
6.411781 0.238708 -72.531845 122 120 110
6.361781 0.238708 -72.531845 120 118 108
6.261781 0.238708 -72.531845 122 121 111
6.211781 0.238708 -72.531845 119 118 108
6.161781 0.238708 -72.531845 121 120 110
-8.788218 0.238708 -72.531845 128 122 109
-8.838219 0.238708 -72.531845 127 121 108
-8.888219 0.238708 -72.531845 126 120 107
35.847126 0.754833 -290.127380 0 0 0
35.647125 0.754833 -290.127380 2 0 0
35.447124 0.754833 -290.127380 7 5 4
35.247124 0.754833 -290.127380 5 1 0
35.047127 0.754833 -290.127380 119 116 112
34.847126 0.754833 -290.127380 117 113 108
34.647125 0.754833 -290.127380 121 118 110
34.447124 0.754833 -290.127380 120 115 106
34.247124 0.754833 -290.127380 121 116 107
6.511781 0.188708 -72.531845 122 117 108
6.411781 0.188708 -72.531845 118 116 106
6.361781 0.188708 -72.531845 115 113 103
6.261781 0.188708 -72.531845 122 120 110
6.211781 0.188708 -72.531845 121 121 109
6.161781 0.188708 -72.531845 124 124 112
-8.838219 0.188708 -72.531845 126 123 109
34.847126 0.554833 -290.127380 117 113 108
34.647125 0.554833 -290.127380 121 117 112
34.247124 0.554833 -290.127380 119 114 105
6.511781 0.138708 -72.531845 121 116 107
6.461782 0.138708 -72.531845 119 114 105
6.411781 0.138708 -72.531845 119 114 105
6.211781 0.138708 -72.531845 119 119 107
6.161781 0.138708 -72.531845 119 119 107
-8.738218 0.138708 -72.531845 126 120 107
-8.788218 0.138708 -72.531845 127 124 110
-8.838219 0.138708 -72.531845 127 124 110
6.561781 0.088708 -72.531845 125 118 109
6.511781 0.088708 -72.531845 122 115 106
6.461782 0.088708 -72.531845 121 116 107
6.411781 0.088708 -72.531845 121 116 107
6.361781 0.088708 -72.531845 122 117 108
6.261781 0.088708 -72.531845 117 115 105
6.211781 0.088708 -72.531845 118 116 105
-4.952876 0.354833 -290.127380 12 2 8
-5.152876 0.354833 -290.127380 17 3 7
-8.738218 0.088708 -72.531845 124 121 107
-8.788218 0.088708 -72.531845 126 122 111
6.511781 0.038708 -72.531845 123 116 107
6.461782 0.038708 -72.531845 125 118 109
6.411781 0.038708 -72.531845 119 114 105
-4.752876 0.154833 -290.127380 15 3 9
-4.952876 0.154833 -290.127380 18 6 12
-5.152876 0.154833 -290.127380 22 8 12
6.561781 -0.011292 -72.531845 123 119 108
6.511781 -0.011292 -72.531845 125 121 110
6.461782 -0.011292 -72.531845 121 117 106
-4.352876 -0.045167 -290.127380 23 11 11
-4.552876 -0.045167 -290.127380 18 4 6
-4.752876 -0.045167 -290.127380 19 4 8
-4.952876 -0.045167 -290.127380 21 6 10
-5.152876 -0.045167 -290.127380 22 8 12
-5.352876 -0.045167 -290.127380 21 8 10
-4.552876 -0.245167 -290.127380 31 12 15
-4.752876 -0.245167 -290.127380 28 9 12
-4.952876 -0.245167 -290.127380 23 6 10
-5.152876 -0.245167 -290.127380 25 8 11
-5.352876 -0.245167 -290.127380 25 11 12
-4.752876 -0.445167 -290.127380 29 8 11
-4.952876 -0.445167 -290.127380 24 3 6
-5.152876 -0.445167 -290.127380 24 3 5
-5.352876 -0.445167 -290.127380 35 16 13
-6.552876 -1.445167 -290.127380 116 93 85
-6.552876 -1.645167 -290.127380 69 49 44
-6.752876 -1.645167 -290.127380 69 48 46
-6.952876 -1.645167 -290.127380 69 49 48
11.750089 -0.656059 -103.156395 117 112 103
11.678978 -0.656059 -103.156395 115 113 103
-6.552876 -1.845167 -290.127380 73 57 51
-6.752876 -1.845167 -290.127380 76 59 56
11.750089 -0.727171 -103.156395 118 113 104
11.678978 -0.727171 -103.156395 118 113 104
-0.138219 -0.511292 -72.531845 44 15 24
-0.188219 -0.511292 -72.531845 44 15 24
-6.552876 -2.045167 -290.127380 73 61 55
-6.752876 -2.045167 -290.127380 99 85 79
11.821200 -0.798282 -103.156395 121 116 107
11.750089 -0.798282 -103.156395 119 114 105
11.335240 -0.784338 -101.354538 117 112 103
11.265371 -0.784338 -101.354538 117 112 103
11.195502 -0.784338 -101.354538 118 116 106
11.125633 -0.784338 -101.354538 120 118 108
0.011781 -0.561292 -72.531845 46 18 24
-0.038219 -0.561292 -72.531845 47 19 25
-0.088219 -0.561292 -72.531845 44 15 24
-0.138219 -0.561292 -72.531845 42 13 22
-0.188219 -0.561292 -72.531845 46 16 27
-6.352876 -2.245167 -290.127380 74 63 59
-6.552876 -2.245167 -290.127380 90 79 75
-6.752876 -2.245167 -290.127380 101 90 86
11.750089 -0.869393 -103.156395 117 113 102
11.405109 -0.854207 -101.354538 120 116 105
11.265371 -0.854207 -101.354538 117 113 102
0.011781 -0.611292 -72.531845 49 21 27
-0.038219 -0.611292 -72.531845 46 18 24
-0.088219 -0.611292 -72.531845 42 13 22
-0.138219 -0.611292 -72.531845 42 13 22
-0.188219 -0.611292 -72.531845 49 17 28
-6.552876 -2.445167 -290.127380 87 76 78
-6.752876 -2.445167 -290.127380 90 79 81
11.750089 -0.940504 -103.156395 117 113 102
11.405109 -0.924076 -101.354538 120 116 105
11.335240 -0.924076 -101.354538 120 116 105
11.265371 -0.924076 -101.354538 119 115 104
-0.188219 -0.661292 -72.531845 51 19 30
11.405109 -0.993945 -101.354538 117 113 102
11.265371 -0.993945 -101.354538 120 116 105
-0.188219 -0.711292 -72.531845 55 24 33
-7.952876 -3.045167 -290.127380 104 87 78
-7.952876 -3.245167 -290.127380 123 110 108
-8.152876 -3.245167 -290.127380 137 123 117
-6.552876 -3.445167 -290.127380 40 29 39
-7.952876 -3.445167 -290.127380 119 108 110
-8.152876 -3.445167 -290.127380 123 111 111
-19.552876 -3.445167 -290.127380 126 117 104
-19.752876 -3.445167 -290.127380 120 111 98
-6.552876 -3.645167 -290.127380 39 32 37
-6.752876 -3.645167 -290.127380 48 40 41
-7.952876 -3.645167 -290.127380 112 101 104
-8.152876 -3.645167 -290.127380 119 105 109
-19.352877 -3.645167 -290.127380 123 120 106
-19.552876 -3.645167 -290.127380 126 120 107
-19.752876 -3.645167 -290.127380 127 121 108
-6.552876 -3.845167 -290.127380 47 40 43
-6.752876 -3.845167 -290.127380 44 36 36
-7.752876 -3.845167 -290.127380 103 92 94
-7.952876 -3.845167 -290.127380 104 93 96
-18.952877 -3.845167 -290.127380 119 118 104
-19.152876 -3.845167 -290.127380 111 110 96
-19.352877 -3.845167 -290.127380 125 124 110
-19.552876 -3.845167 -290.127380 124 121 107
-19.752876 -3.845167 -290.127380 123 120 106
-20.552876 -3.845167 -290.127380 74 64 47
-6.752876 -4.045167 -290.127380 51 46 45
-6.952876 -4.045167 -290.127380 64 55 51
-7.752876 -4.045167 -290.127380 93 82 85
-7.952876 -4.045167 -290.127380 99 87 93
-18.952877 -4.045167 -290.127380 116 112 101
-19.152876 -4.045167 -290.127380 117 114 100
-19.352877 -4.045167 -290.127380 116 113 99
-19.552876 -4.045167 -290.127380 119 113 100
-19.752876 -4.045167 -290.127380 116 108 95
-20.152876 -4.045167 -290.127380 65 53 41
-20.552876 -4.045167 -290.127380 74 63 49
-6.952876 -4.245167 -290.127380 43 34 30
-7.752876 -4.245167 -290.127380 85 71 75
-7.952876 -4.245167 -290.127380 90 79 82
-18.952877 -4.245167 -290.127380 125 121 110
-19.152876 -4.245167 -290.127380 114 110 99
-19.352877 -4.245167 -290.127380 120 117 103
-19.552876 -4.245167 -290.127380 115 109 98
-19.752876 -4.245167 -290.127380 79 71 58
-19.952877 -4.245167 -290.127380 70 58 48
-20.152876 -4.245167 -290.127380 64 52 40
-20.352877 -4.245167 -290.127380 71 59 47
-20.552876 -4.245167 -290.127380 73 64 50
-20.752876 -4.245167 -290.127380 114 106 93
-6.952876 -4.445167 -290.127380 35 28 25
-7.152876 -4.445167 -290.127380 43 32 28
-7.752876 -4.445167 -290.127380 74 60 62
-7.952876 -4.445167 -290.127380 81 70 72
-18.752876 -4.445167 -290.127380 117 112 103
-18.952877 -4.445167 -290.127380 122 117 108
-19.152876 -4.445167 -290.127380 122 117 108
-19.352877 -4.445167 -290.127380 118 114 103
-19.552876 -4.445167 -290.127380 93 88 79
-19.752876 -4.445167 -290.127380 61 55 44
-19.952877 -4.445167 -290.127380 74 65 56
-20.152876 -4.445167 -290.127380 75 65 55
-20.352877 -4.445167 -290.127380 73 64 51
-20.552876 -4.445167 -290.127380 86 77 64
-20.752876 -4.445167 -290.127380 120 112 99
13.404667 -2.252202 -140.667816 117 111 104
13.307697 -2.252202 -140.667816 116 110 103
13.210728 -2.252202 -140.667816 117 112 103
-6.552876 -4.645167 -290.127380 58 54 49
-6.752876 -4.645167 -290.127380 37 31 26
-6.952876 -4.645167 -290.127380 24 18 13
-7.152876 -4.645167 -290.127380 33 24 20
-7.352876 -4.645167 -290.127380 49 38 34
-7.552876 -4.645167 -290.127380 61 46 44
-7.752876 -4.645167 -290.127380 72 56 57
-7.952876 -4.645167 -290.127380 80 68 68
-18.752876 -4.645167 -290.127380 120 115 106
-18.952877 -4.645167 -290.127380 118 116 106
-19.152876 -4.645167 -290.127380 118 115 107
-19.352877 -4.645167 -290.127380 110 105 96
-19.552876 -4.645167 -290.127380 97 91 84
-19.752876 -4.645167 -290.127380 99 91 84
-19.952877 -4.645167 -290.127380 109 99 92
-20.152876 -4.645167 -290.127380 116 107 98
-20.352877 -4.645167 -290.127380 102 92 82
-20.552876 -4.645167 -290.127380 114 106 93
-20.752876 -4.645167 -290.127380 124 118 105
-20.952877 -4.645167 -290.127380 122 116 103
13.404667 -2.349172 -140.667816 114 108 101
13.307697 -2.349172 -140.667816 114 108 101
13.210728 -2.349172 -140.667816 118 113 104
-6.552876 -4.845167 -290.127380 68 57 49
-6.752876 -4.845167 -290.127380 56 47 38
-6.952876 -4.845167 -290.127380 35 26 17
-7.152876 -4.845167 -290.127380 21 14 5
-7.352876 -4.845167 -290.127380 45 36 27
-7.552876 -4.845167 -290.127380 50 36 30
-7.752876 -4.845167 -290.127380 58 42 36
-7.952876 -4.845167 -290.127380 77 62 59
-18.752876 -4.845167 -290.127380 117 114 106
-18.952877 -4.845167 -290.127380 115 112 104
-19.152876 -4.845167 -290.127380 111 107 102
-19.352877 -4.845167 -290.127380 104 98 91
-19.552876 -4.845167 -290.127380 116 107 103
-19.752876 -4.845167 -290.127380 114 103 99
-19.952877 -4.845167 -290.127380 117 106 102
-20.152876 -4.845167 -290.127380 120 110 103
-20.352877 -4.845167 -290.127380 121 112 102
-20.552876 -4.845167 -290.127380 123 115 102
-20.752876 -4.845167 -290.127380 120 114 101
13.210728 -2.446142 -140.667816 118 113 104
-6.352876 -5.045167 -290.127380 75 59 43
-6.552876 -5.045167 -290.127380 81 65 52
-6.752876 -5.045167 -290.127380 71 58 44
-6.952876 -5.045167 -290.127380 43 31 19
-7.152876 -5.045167 -290.127380 31 21 11
-7.352876 -5.045167 -290.127380 35 25 15
-7.552876 -5.045167 -290.127380 47 32 23
-7.752876 -5.045167 -290.127380 57 41 34
-7.952876 -5.045167 -290.127380 61 47 41
-18.752876 -5.045167 -290.127380 112 108 103
-18.952877 -5.045167 -290.127380 110 106 101
-19.152876 -5.045167 -290.127380 107 101 96
-19.352877 -5.045167 -290.127380 107 98 94
-19.552876 -5.045167 -290.127380 117 106 102
-19.752876 -5.045167 -290.127380 118 106 102
-19.952877 -5.045167 -290.127380 118 105 103
-20.152876 -5.045167 -290.127380 119 108 104
-20.352877 -5.045167 -290.127380 124 115 105
-20.552876 -5.045167 -290.127380 123 117 104
-6.352876 -5.245167 -290.127380 79 55 35
-6.552876 -5.245167 -290.127380 86 65 44
-6.752876 -5.245167 -290.127380 78 60 43
-6.952876 -5.245167 -290.127380 62 46 30
-7.152876 -5.245167 -290.127380 41 28 14
-7.352876 -5.245167 -290.127380 23 11 0
-7.552876 -5.245167 -290.127380 41 26 17
-7.752876 -5.245167 -290.127380 54 38 31
-7.952876 -5.245167 -290.127380 60 47 39
-8.152876 -5.245167 -290.127380 62 49 41
-18.552876 -5.245167 -290.127380 112 106 101
-18.752876 -5.245167 -290.127380 109 103 98
-18.952877 -5.245167 -290.127380 109 103 98
-19.152876 -5.245167 -290.127380 106 97 94
-19.352877 -5.245167 -290.127380 111 99 97
-19.552876 -5.245167 -290.127380 116 103 101
-19.752876 -5.245167 -290.127380 120 105 103
-19.952877 -5.245167 -290.127380 118 103 101
-20.152876 -5.245167 -290.127380 120 108 104
-20.352877 -5.245167 -290.127380 122 113 103
-20.552876 -5.245167 -290.127380 121 115 102
-6.152876 -5.445167 -290.127380 84 61 35
-6.352876 -5.445167 -290.127380 95 70 44
-6.552876 -5.445167 -290.127380 89 65 41
-6.752876 -5.445167 -290.127380 86 62 42
-6.952876 -5.445167 -290.127380 82 65 46
-7.152876 -5.445167 -290.127380 65 49 33
-7.352876 -5.445167 -290.127380 40 26 14
-7.552876 -5.445167 -290.127380 27 14 6
-7.752876 -5.445167 -290.127380 37 23 17
-7.952876 -5.445167 -290.127380 56 43 35
-8.152876 -5.445167 -290.127380 58 46 36
-8.352877 -5.445167 -290.127380 64 49 40
-18.752876 -5.445167 -290.127380 105 96 92
-18.952877 -5.445167 -290.127380 108 99 95
-19.152876 -5.445167 -290.127380 107 98 95
-19.352877 -5.445167 -290.127380 108 99 96
-19.552876 -5.445167 -290.127380 113 101 99
-19.752876 -5.445167 -290.127380 118 105 103
-19.952877 -5.445167 -290.127380 120 107 105
-20.152876 -5.445167 -290.127380 125 113 109
-20.352877 -5.445167 -290.127380 121 115 104
-20.552876 -5.445167 -290.127380 119 116 102
-6.352876 -5.645167 -290.127380 87 60 33
-6.552876 -5.645167 -290.127380 83 58 32
-6.752876 -5.645167 -290.127380 87 63 41
-6.952876 -5.645167 -290.127380 84 65 44
-7.152876 -5.645167 -290.127380 88 70 53
-7.352876 -5.645167 -290.127380 77 63 51
-7.552876 -5.645167 -290.127380 46 34 28
-7.752876 -5.645167 -290.127380 35 24 20
-7.952876 -5.645167 -290.127380 34 23 15
-8.152876 -5.645167 -290.127380 45 35 25
-18.752876 -5.645167 -290.127380 108 97 93
-18.952877 -5.645167 -290.127380 108 99 95
-19.152876 -5.645167 -290.127380 106 100 95
-19.352877 -5.645167 -290.127380 102 98 93
-19.552876 -5.645167 -290.127380 106 102 97
-19.752876 -5.645167 -290.127380 111 107 102
-19.952877 -5.645167 -290.127380 117 111 106
-20.152876 -5.645167 -290.127380 117 111 104
-20.352877 -5.645167 -290.127380 121 116 107
-6.352876 -5.845167 -290.127380 82 55 28
-6.552876 -5.845167 -290.127380 89 65 37
-6.752876 -5.845167 -290.127380 88 65 43
-6.952876 -5.845167 -290.127380 89 67 49
-7.152876 -5.845167 -290.127380 89 70 55
-7.352876 -5.845167 -290.127380 77 63 51
-7.552876 -5.845167 -290.127380 51 40 36
-7.752876 -5.845167 -290.127380 36 27 23
-7.952876 -5.845167 -290.127380 43 33 26
-19.352877 -5.845167 -290.127380 100 100 94
-19.552876 -5.845167 -290.127380 105 105 99
-19.752876 -5.845167 -290.127380 110 111 102
-34.752876 -5.845167 -290.127380 121 115 108
-34.952873 -5.845167 -290.127380 51 48 40
-6.352876 -6.045167 -290.127380 90 67 41
-6.552876 -6.045167 -290.127380 84 61 35
-6.752876 -6.045167 -290.127380 76 55 34
-6.952876 -6.045167 -290.127380 90 70 53
-7.152876 -6.045167 -290.127380 85 68 55
-7.352876 -6.045167 -290.127380 69 54 45
-7.552876 -6.045167 -290.127380 43 35 28
-7.752876 -6.045167 -290.127380 29 23 18
-19.352877 -6.045167 -290.127380 108 109 100
-19.552876 -6.045167 -290.127380 110 111 102
-19.752876 -6.045167 -290.127380 115 116 106
-19.952877 -6.045167 -290.127380 120 114 107
-20.152876 -6.045167 -290.127380 122 115 106
-20.352877 -6.045167 -290.127380 122 118 107
-33.952873 -6.045167 -290.127380 128 119 110
-34.152874 -6.045167 -290.127380 128 119 110
-34.352875 -6.045167 -290.127380 127 120 111
-34.552876 -6.045167 -290.127380 126 121 112
-34.752876 -6.045167 -290.127380 126 120 113
-34.952873 -6.045167 -290.127380 81 78 70
-35.152874 -6.045167 -290.127380 27 24 19
-6.552876 -6.245167 -290.127380 78 58 40
-6.752876 -6.245167 -290.127380 85 67 50
-6.952876 -6.245167 -290.127380 80 63 50
-7.152876 -6.245167 -290.127380 63 47 40
-7.552876 -6.245167 -290.127380 49 40 36
-7.752876 -6.245167 -290.127380 56 50 45
-18.952877 -6.245167 -290.127380 115 103 97
-19.152876 -6.245167 -290.127380 111 108 100
-19.352877 -6.245167 -290.127380 121 120 110
-19.552876 -6.245167 -290.127380 112 113 103
-19.752876 -6.245167 -290.127380 116 116 104
-19.952877 -6.245167 -290.127380 118 112 101
-20.352877 -6.245167 -290.127380 122 118 107
-33.752876 -6.245167 -290.127380 126 121 112
-33.952873 -6.245167 -290.127380 127 120 111
-34.152874 -6.245167 -290.127380 125 118 109
-34.352875 -6.245167 -290.127380 127 120 111
-34.752876 -6.245167 -290.127380 124 122 112
-34.952873 -6.245167 -290.127380 96 93 85
-35.152874 -6.245167 -290.127380 21 19 11
-6.552876 -6.445168 -290.127380 59 43 36
-6.752876 -6.445168 -290.127380 58 45 37
-6.952876 -6.445168 -290.127380 48 36 30
-7.152876 -6.445168 -290.127380 49 36 34
-7.352876 -6.445168 -290.127380 56 44 44
-7.552876 -6.445168 -290.127380 62 50 48
-7.752876 -6.445168 -290.127380 41 34 31
-18.952877 -6.445168 -290.127380 121 114 105
-19.152876 -6.445168 -290.127380 119 114 105
-19.352877 -6.445168 -290.127380 117 115 104
-19.752876 -6.445168 -290.127380 120 117 103
-33.752876 -6.445168 -290.127380 123 118 109
-33.952873 -6.445168 -290.127380 125 121 110
-34.152874 -6.445168 -290.127380 121 117 106
-34.352875 -6.445168 -290.127380 124 120 109
-34.752876 -6.445168 -290.127380 120 118 107
-34.952873 -6.445168 -290.127380 113 111 101
-35.152874 -6.445168 -290.127380 38 36 26
-6.552876 -6.645167 -290.127380 43 29 30
-6.752876 -6.645167 -290.127380 49 37 35
-6.952876 -6.645167 -290.127380 61 51 51
-7.152876 -6.645167 -290.127380 65 54 57
-7.552876 -6.645167 -290.127380 31 23 23
-7.752876 -6.645167 -290.127380 24 19 18
-3.188219 -1.661292 -72.531845 26 12 0
-3.238219 -1.661292 -72.531845 31 20 12
-33.752876 -6.645167 -290.127380 124 119 110
-33.952873 -6.645167 -290.127380 125 121 110
-34.152874 -6.645167 -290.127380 124 120 109
-34.352875 -6.645167 -290.127380 123 121 110
-34.552876 -6.645167 -290.127380 123 121 110
-34.752876 -6.645167 -290.127380 118 116 105
-34.952873 -6.645167 -290.127380 123 121 110
-35.152874 -6.645167 -290.127380 72 70 60
-6.552876 -6.845168 -290.127380 53 42 44
-6.752876 -6.845168 -290.127380 52 44 45
-6.952876 -6.845168 -290.127380 47 40 43
-7.152876 -6.845168 -290.127380 36 29 34
-7.352876 -6.845168 -290.127380 19 13 18
-7.552876 -6.845168 -290.127380 19 17 17
-7.752876 -6.845168 -290.127380 17 17 17
-3.188219 -1.711292 -72.531845 35 22 8
-3.238219 -1.711292 -72.531845 23 13 3
-3.288219 -1.711292 -72.531845 36 27 17
-33.952873 -6.845168 -290.127380 124 120 109
-34.152874 -6.845168 -290.127380 126 122 111
-34.352875 -6.845168 -290.127380 122 121 107
-34.552876 -6.845168 -290.127380 120 119 105
-34.752876 -6.845168 -290.127380 125 123 112
-34.952873 -6.845168 -290.127380 115 113 102
-35.152874 -6.845168 -290.127380 103 101 91
-35.352875 -6.845168 -290.127380 30 28 18
-20.423500 -3.042297 -128.945496 33 27 28
-20.512388 -3.042297 -128.945496 38 32 33
-7.352876 -7.045167 -290.127380 24 22 28
-7.552876 -7.045167 -290.127380 24 25 29
-7.752876 -7.045167 -290.127380 16 19 23
-2.188219 -1.761292 -72.531845 43 34 24
-3.088219 -1.761292 -72.531845 68 55 39
-3.138219 -1.761292 -72.531845 55 41 22
-3.188219 -1.761292 -72.531845 40 27 13
-3.238219 -1.761292 -72.531845 23 11 0
-33.952873 -7.045167 -290.127380 123 119 108
-34.152874 -7.045167 -290.127380 125 121 110
-34.352875 -7.045167 -290.127380 119 118 104
-34.552876 -7.045167 -290.127380 118 117 103
-34.752876 -7.045167 -290.127380 121 119 108
-34.952873 -7.045167 -290.127380 121 119 108
-35.152874 -7.045167 -290.127380 115 113 103
-35.352875 -7.045167 -290.127380 60 57 49
-20.423500 -3.131186 -128.945496 53 45 46
-20.512388 -3.131186 -128.945496 65 57 57
-6.752876 -7.245168 -290.127380 11 7 18
-6.952876 -7.245168 -290.127380 19 15 26
-7.152876 -7.245168 -290.127380 28 27 37
-7.352876 -7.245168 -290.127380 28 27 37
-7.752876 -7.245168 -290.127380 17 17 23
-2.188219 -1.811292 -72.531845 44 38 25
-3.088219 -1.811292 -72.531845 71 60 46
-3.138219 -1.811292 -72.531845 63 51 33
-3.188219 -1.811292 -72.531845 48 35 19
-3.238219 -1.811292 -72.531845 32 21 7
-34.352875 -7.245168 -290.127380 120 117 103
-34.752876 -7.245168 -290.127380 125 121 110
-34.952873 -7.245168 -290.127380 119 115 104
-35.152874 -7.245168 -290.127380 122 117 108
-35.352875 -7.245168 -290.127380 72 66 59
-20.423500 -3.220074 -128.945496 73 62 64
-20.512388 -3.220074 -128.945496 66 56 56
-20.601278 -3.220074 -128.945496 57 47 47
-7.152876 -7.445168 -290.127380 25 25 39
-2.138219 -1.861292 -72.531845 40 36 25
-2.188219 -1.861292 -72.531845 45 43 33
-3.088219 -1.861292 -72.531845 70 61 48
-3.138219 -1.861292 -72.531845 71 59 41
-3.188219 -1.861292 -72.531845 55 42 26
-34.952873 -7.445168 -290.127380 127 123 112
-35.152874 -7.445168 -290.127380 122 116 109
-35.352875 -7.445168 -290.127380 70 64 57
-20.601278 -3.308963 -128.945496 35 26 23
-6.952876 -7.645167 -290.127380 27 27 45
-7.152876 -7.645167 -290.127380 20 20 36
-2.088219 -1.911292 -72.531845 43 34 20
-2.138219 -1.911292 -72.531845 48 42 31
-2.188219 -1.911292 -72.531845 37 36 32
-3.038219 -1.911292 -72.531845 44 39 38
-3.088219 -1.911292 -72.531845 72 60 48
-3.138219 -1.911292 -72.531845 80 66 48
-3.188219 -1.911292 -72.531845 65 50 34
-2.088219 -1.961292 -72.531845 62 49 35
-2.138219 -1.961292 -72.531845 53 46 37
-2.188219 -1.961292 -72.531845 21 20 24
-2.238219 -1.961292 -72.531845 21 23 34
-3.038219 -1.961292 -72.531845 50 42 42
-3.088219 -1.961292 -72.531845 69 57 45
-3.138219 -1.961292 -72.531845 81 65 48
-3.188219 -1.961292 -72.531845 74 56 39
-3.238219 -1.961292 -72.531845 58 41 28
-3.388219 -1.961292 -72.531845 57 26 33
-2.088219 -2.011292 -72.531845 69 52 43
-2.138219 -2.011292 -72.531845 42 30 30
-2.188219 -2.011292 -72.531845 25 21 33
-3.088219 -2.011292 -72.531845 74 58 46
-3.138219 -2.011292 -72.531845 80 63 44
-3.188219 -2.011292 -72.531845 77 57 39
-3.238219 -2.011292 -72.531845 69 48 33
-3.388219 -2.011292 -72.531845 52 21 28
-3.438219 -2.011292 -72.531845 55 22 29
-2.088219 -2.061292 -72.531845 60 45 42
-2.138219 -2.061292 -72.531845 35 22 30
-2.188219 -2.061292 -72.531845 31 27 46
-2.238219 -2.061292 -72.531845 28 28 52
-2.288219 -2.061292 -72.531845 24 24 48
-3.038219 -2.061292 -72.531845 55 43 43
-3.088219 -2.061292 -72.531845 67 50 37
-3.138219 -2.061292 -72.531845 87 66 45
-3.188219 -2.061292 -72.531845 86 65 44
-3.238219 -2.061292 -72.531845 70 47 31
-3.388219 -2.061292 -72.531845 50 20 25
-3.438219 -2.061292 -72.531845 50 17 24
-4.993245 -2.517608 -88.588509 117 114 100
-5.054313 -2.517608 -88.588509 115 112 98
3.711781 -2.111292 -72.531845 112 107 98
-2.088219 -2.111292 -72.531845 43 32 35
-2.138219 -2.111292 -72.531845 28 18 34
-2.188219 -2.111292 -72.531845 24 20 45
-3.038219 -2.111292 -72.531845 51 39 39
-3.088219 -2.111292 -72.531845 72 53 40
-3.138219 -2.111292 -72.531845 95 71 51
-3.188219 -2.111292 -72.531845 93 71 46
-3.238219 -2.111292 -72.531845 72 48 28
-3.388219 -2.111292 -72.531845 51 23 23
-3.438219 -2.111292 -72.531845 48 19 22
-4.993245 -2.578677 -88.588509 119 115 104
-5.054313 -2.578677 -88.588509 116 112 101
3.711781 -2.161292 -72.531845 109 104 95
-2.138219 -2.161292 -72.531845 27 22 43
-2.188219 -2.161292 -72.531845 25 22 48
-3.038219 -2.161292 -72.531845 54 40 41
-3.088219 -2.161292 -72.531845 77 58 45
-3.138219 -2.161292 -72.531845 94 71 49
-3.188219 -2.161292 -72.531845 90 66 42
-3.238219 -2.161292 -72.531845 72 48 28
-3.388219 -2.161292 -72.531845 49 24 22
-3.438219 -2.161292 -72.531845 49 22 25
-5.054313 -2.639746 -88.588509 118 114 103
-5.115382 -2.639746 -88.588509 118 114 103
3.961781 -2.211292 -72.531845 112 108 97
3.861781 -2.211292 -72.531845 112 108 97
3.761781 -2.211292 -72.531845 115 111 100
3.711781 -2.211292 -72.531845 107 103 92
-3.088219 -2.211292 -72.531845 75 53 41
-3.138219 -2.211292 -72.531845 89 64 44
-3.188219 -2.211292 -72.531845 88 61 40
-3.388219 -2.211292 -72.531845 46 23 21
-5.054313 -2.700814 -88.588509 123 116 107
3.961781 -2.261292 -72.531845 115 111 100
3.911781 -2.261292 -72.531845 109 105 94
3.861781 -2.261292 -72.531845 115 111 100
3.811781 -2.261292 -72.531845 114 110 99
3.761781 -2.261292 -72.531845 114 110 99
3.711781 -2.261292 -72.531845 109 105 94
-3.038219 -2.261292 -72.531845 65 51 53
-3.088219 -2.261292 -72.531845 78 56 45
-3.138219 -2.261292 -72.531845 92 66 49
16.742115 -4.741112 -148.783264 118 113 104
16.639551 -4.741112 -148.783264 115 110 101
3.861781 -2.311292 -72.531845 114 110 99
3.811781 -2.311292 -72.531845 112 108 97
3.761781 -2.311292 -72.531845 113 109 98
3.711781 -2.311292 -72.531845 111 107 96
-3.088219 -2.311292 -72.531845 84 63 55
16.742115 -4.843676 -148.783264 116 111 102
16.639551 -4.843676 -148.783264 118 113 104
3.911781 -2.361292 -72.531845 111 107 96
3.811781 -2.361292 -72.531845 113 107 96
3.761781 -2.361292 -72.531845 115 109 98
3.711781 -2.361292 -72.531845 111 105 94
-1.591933 -2.808972 -86.283234 40 32 33
16.742115 -4.946240 -148.783264 118 116 106
16.639551 -4.946240 -148.783264 118 116 106
16.536987 -4.946240 -148.783264 116 114 104
4.311781 -2.411292 -72.531845 113 108 99
4.111781 -2.411292 -72.531845 114 112 101
3.961781 -2.411292 -72.531845 109 105 94
3.911781 -2.411292 -72.531845 113 106 97
3.861781 -2.411292 -72.531845 118 109 100
3.811781 -2.411292 -72.531845 112 103 94
3.761781 -2.411292 -72.531845 109 100 91
3.711781 -2.411292 -72.531845 115 106 97
-1.591933 -2.868451 -86.283234 39 29 29
-1.651413 -2.868451 -86.283234 43 35 35
-1.710892 -2.868451 -86.283234 30 24 25
16.536987 -5.048804 -148.783264 115 113 103
4.311781 -2.461292 -72.531845 109 104 95
4.261781 -2.461292 -72.531845 110 106 95
4.211781 -2.461292 -72.531845 107 105 94
4.161781 -2.461292 -72.531845 109 108 94
4.111781 -2.461292 -72.531845 111 110 96
4.061781 -2.461292 -72.531845 110 109 95
4.011781 -2.461292 -72.531845 111 107 96
3.961781 -2.461292 -72.531845 109 105 94
3.911781 -2.461292 -72.531845 113 104 95
3.861781 -2.461292 -72.531845 113 104 95
3.811781 -2.461292 -72.531845 111 100 92
3.761781 -2.461292 -72.531845 112 103 94
3.711781 -2.461292 -72.531845 116 107 98
-1.591933 -2.927931 -86.283234 24 16 16
-1.651413 -2.927931 -86.283234 28 20 20
-1.710892 -2.927931 -86.283234 37 31 32
4.311781 -2.511292 -72.531845 110 105 96
4.261781 -2.511292 -72.531845 108 104 93
4.211781 -2.511292 -72.531845 108 106 95
4.161781 -2.511292 -72.531845 110 108 97
4.111781 -2.511292 -72.531845 111 109 98
4.061781 -2.511292 -72.531845 110 108 97
