ply
format ascii 1.0
element vertex 1186
property float x
property float y
property float z
property uchar red
property uchar green
property uchar blue
end_header
1.540828 -0.249123 -28.037092 62 50 40
2.712152 -0.447318 -50.342583 32 19 11
2.689476 -0.448081 -50.428490 25 12 4
2.662173 -0.448081 -50.428490 55 42 34
2.630380 -0.447318 -50.342583 98 88 78
2.603123 -0.447318 -50.342583 105 96 86
0.893763 -0.238488 -26.840233 100 92 79
0.868971 -0.235705 -26.527016 100 92 79
0.843254 -0.232574 -26.174576 101 94 79
0.819644 -0.229926 -25.876616 101 94 79
0.794502 -0.226749 -25.519081 102 95 78
0.772018 -0.224232 -25.235777 99 92 75
0.764887 -0.226163 -25.453140 98 94 76
18.811710 -7.096637 -798.678284 53 43 43
19.429522 -7.502159 -844.317017 55 46 43
22.134441 -8.752519 -985.036499 46 37 34
39.502079 -16.410973 -1846.943481 54 46 39
38.502079 -16.410973 -1846.943481 95 88 79
0.468351 -0.210566 -23.697752 102 95 80
0.449038 -0.207570 -23.360550 101 94 77
0.431276 -0.205137 -23.086794 100 93 76
0.421741 -0.206590 -23.250273 97 93 75
0.408831 -0.206427 -23.231993 101 97 79
0.393776 -0.205137 -23.086794 100 95 80
0.381276 -0.205137 -23.086794 103 97 84
-1.281584 -1.450694 -163.265717 102 95 80
-1.311993 -1.389289 -156.355011 104 97 82
-1.300329 -1.293476 -145.571899 103 96 81
-1.278387 -1.198975 -134.936508 101 94 77
-1.264815 -1.122118 -126.286736 100 93 78
-1.247867 -1.050302 -118.204384 100 95 80
-1.232958 -0.987126 -111.094345 101 96 81
-1.219740 -0.931119 -104.791122 100 95 80
-0.495533 -0.331954 -37.359161 100 94 81
-0.533963 -0.330700 -37.218006 94 91 76
-0.653247 -0.376183 -42.336815 90 86 75
-0.676170 -0.376183 -42.336815 43 37 30
-0.701102 -0.377264 -42.458469 23 18 15
-0.802345 -0.393077 -44.238167 17 11 12
-0.817729 -0.389001 -43.779400 16 12 11
-0.836475 -0.386709 -43.521496 16 13 9
-0.867004 -0.379444 -42.703896 18 15 11
-0.885010 -0.377264 -42.458469 12 7 8
-0.905396 -0.376183 -42.336815 14 9 10
-0.919102 -0.372448 -41.916447 14 9 8
-0.932538 -0.368786 -41.504349 14 9 6
-0.949674 -0.366726 -41.272480 15 8 5
-0.970665 -0.366214 -41.214916 22 16 11
-0.988843 -0.364688 -41.043190 22 13 9
-1.006870 -0.363175 -40.872887 18 10 3
-1.026161 -0.362173 -40.760132 43 33 26
-1.042478 -0.360186 -40.536484 91 82 73
-1.058618 -0.358220 -40.315273 104 95 85
-20.306839 -6.732707 -757.720398 98 89 79
-14.690305 -4.774101 -537.292664 98 90 77
-11.605165 -3.698247 -416.212616 104 96 83
-9.654790 -3.018110 -339.667755 101 93 80
-8.310357 -2.549277 -286.903839 101 93 80
-7.327452 -2.206517 -248.328537 105 98 83
-7.721450 -2.283266 -256.966064 98 90 77
-8.862419 -2.574270 -289.716614 98 92 79
-9.019281 -2.574270 -289.716614 94 90 79
-9.176145 -2.574270 -289.716614 91 87 76
-9.333007 -2.574270 -289.716614 95 91 80
-9.777442 -2.652278 -298.495911 62 58 47
-2.899442 -0.231548 -26.059168 28 22 17
-2.895676 -0.230128 -25.899296 43 37 32
-2.899534 -0.229324 -25.808817 57 51 44
-2.908428 -0.228924 -25.763815 88 83 74
-2.924927 -0.229124 -25.786297 95 91 80
3.697535 -0.468194 -49.665707 100 88 84
3.604015 -0.459696 -48.764183 98 88 81
3.496828 -0.449315 -47.663059 97 90 81
3.389029 -0.438702 -46.537159 95 89 78
3.281157 -0.427919 -45.393387 95 89 78
3.178461 -0.417655 -44.304493 98 92 81
3.080576 -0.407871 -43.266613 101 95 84
2.987172 -0.398534 -42.276245 100 94 83
1.606121 -0.265058 -28.117123 99 94 79
1.590897 -0.265058 -28.117123 103 96 81
1.575674 -0.265058 -28.117123 104 92 82
1.540828 -0.264303 -28.037092 63 47 40
2.716780 -0.475385 -50.428490 30 14 8
2.689476 -0.475385 -50.428490 33 20 12
2.662173 -0.475385 -50.428490 78 65 57
2.634869 -0.475385 -50.428490 106 96 86
2.607565 -0.475385 -50.428490 95 87 74
47.502079 -17.410973 -1846.943481 26 21 18
46.502079 -17.410973 -1846.943481 28 23 20
45.502079 -17.410973 -1846.943481 34 27 24
23.734442 -9.285852 -985.036499 34 27 24
19.886665 -7.959302 -844.317017 44 37 34
22.667776 -9.285852 -985.036499 55 48 45
27.668053 -11.607315 -1231.295654 50 43 40
0.446567 -0.219006 -23.231993 102 95 78
0.431276 -0.217637 -23.086794 99 93 74
0.422073 -0.219351 -23.268579 101 95 76
0.409475 -0.219351 -23.268579 104 97 80
0.396564 -0.219178 -23.250273 98 93 78
0.185915 -0.239738 -25.431236 97 91 78
-1.305088 -1.466187 -155.532089 104 97 80
-1.300329 -1.372293 -145.571899 101 97 79
-1.278387 -1.272035 -134.936508 96 92 73
-1.259433 -1.185428 -125.749344 97 93 75
-1.242895 -1.109863 -117.733452 102 98 80
-1.228340 -1.043354 -110.678261 103 99 81
-1.219740 -0.987857 -104.791122 96 94 76
-1.220226 -0.944324 -100.173203 95 93 75
-0.498052 -0.353971 -37.549042 102 99 84
-0.518382 -0.353971 -37.549042 97 94 79
-0.537347 -0.353074 -37.453861 94 91 76
-0.652313 -0.398534 -42.276245 53 51 41
-0.673276 -0.397397 -42.155628 23 19 14
-0.699093 -0.399105 -42.336815 20 15 14
-0.760131 -0.420174 -44.571789 17 10 13
-0.784264 -0.420174 -44.571789 13 8 10
-0.807179 -0.419542 -44.504662 18 13 15
-0.828779 -0.418282 -44.371014 18 13 14
-0.851524 -0.417655 -44.304493 13 10 6
-0.868998 -0.414547 -43.974846 13 10 6
-0.883603 -0.410273 -43.521496 12 9 5
-0.897911 -0.406087 -43.077400 11 8 4
-0.909305 -0.400828 -42.519562 20 17 13
-0.925667 -0.397965 -42.215851 22 17 14
-0.936483 -0.392913 -41.679966 26 20 15
-0.953670 -0.390709 -41.446136 31 25 20
-0.976110 -0.390709 -41.446136 25 19 14
-0.997152 -0.390162 -41.388088 33 24 20
-1.019561 -0.390162 -41.388088 63 55 48
-1.034724 -0.387449 -41.100273 93 83 76
-1.048230 -0.384242 -40.760132 105 96 87
-21.404507 -7.529069 -798.678284 99 90 80
-15.244656 -5.256143 -557.567871 99 91 78
-11.941546 -4.037327 -428.276764 102 94 81
-9.881962 -3.277359 -347.659943 100 92 79
-8.474918 -2.758174 -292.585114 99 91 78
-7.452707 -2.380988 -252.573471 104 96 83
-9.825726 -3.027995 -321.207550 102 96 83
-10.109525 -3.061270 -324.737305 102 96 83
-10.285349 -3.061270 -324.737305 104 98 85
-10.461173 -3.061270 -324.737305 98 92 81
-2.893141 -0.243937 -25.876616 77 71 64
-2.897004 -0.243085 -25.786297 86 81 72
-2.905895 -0.242662 -25.741373 95 91 80
-2.919832 -0.242662 -25.741373 92 89 75
3.562860 -0.480547 -48.207333 100 88 82
3.463312 -0.470568 -47.206223 97 88 78
3.357306 -0.459556 -46.101555 98 92 79
3.256148 -0.449048 -45.047401 94 88 77
3.154811 -0.438356 -43.974846 91 85 72
3.058188 -0.428162 -42.952175 96 90 79
2.970175 -0.419026 -42.035698 102 96 85
1.578678 -0.280816 -28.170731 107 91 84
2.716780 -0.502689 -50.428490 33 14 9
2.694074 -0.503548 -50.514694 39 23 17
2.666723 -0.503548 -50.514694 86 73 65
2.634869 -0.502689 -50.428490 100 91 81
2.607565 -0.502689 -50.428490 98 90 77
48.502079 -18.410973 -1846.943481 25 21 16
47.502079 -18.410973 -1846.943481 26 21 18
46.502079 -18.410973 -1846.943481 33 28 25
45.502079 -18.410973 -1846.943481 29 22 19
44.502079 -18.410973 -1846.943481 35 28 25
43.502079 -18.410973 -1846.943481 39 32 29
42.502079 -18.410973 -1846.943481 50 44 39
41.502079 -18.410973 -1846.943481 53 47 42
0.443776 -0.230137 -23.086794 102 95 78
0.431276 -0.230137 -23.086794 97 91 72
0.421741 -0.231767 -23.250273 101 95 76
0.409153 -0.231767 -23.250273 102 95 78
0.396253 -0.231585 -23.231993 96 90 77
0.383976 -0.231767 -23.250273 105 99 88
0.371387 -0.231767 -23.250273 74 64 57
0.234280 -0.261380 -26.221025 99 94 79
0.217382 -0.258173 -25.899296 102 96 83
0.201593 -0.255930 -25.674280 101 95 82
0.185915 -0.253507 -25.431236 100 94 81
0.170677 -0.251344 -25.214245 98 92 79
-1.239280 -1.382984 -138.737534 97 93 74
-1.233334 -1.297690 -130.181046 99 95 76
-1.217970 -1.212245 -121.609444 100 96 77
-1.204505 -1.137357 -114.096893 101 97 78
-1.179736 -1.059624 -106.298904 98 96 78
-1.190196 -1.019293 -102.252930 98 96 78
-0.503813 -0.378632 -37.983414 97 94 79
-0.525054 -0.379119 -38.032299 97 94 79
-0.545646 -0.379119 -38.032299 95 94 80
-0.566238 -0.379119 -38.032299 61 59 48
-0.673276 -0.420222 -42.155628 18 13 10
-0.762431 -0.445651 -44.706650 15 8 11
-0.809617 -0.444978 -44.639118 12 7 9
-0.832529 -0.444307 -44.571789 22 17 18
-0.856662 -0.444307 -44.571789 25 21 20
-0.878145 -0.442971 -44.437737 13 10 6
-0.894138 -0.439010 -44.040382 12 9 4
-0.905833 -0.433199 -43.457493 18 15 10
-0.914568 -0.426303 -42.765697 20 16 11
-0.926991 -0.421424 -42.276245 23 17 10
-0.941797 -0.417838 -41.916447 17 11 4
-0.959050 -0.415480 -41.679966 29 23 16
-0.983004 -0.416067 -41.738834 61 55 48
-1.002770 -0.414895 -41.621262 85 78 69
-1.025305 -0.414895 -41.621262 101 94 85
-1.041970 -0.412571 -41.388088 103 94 85
-31.038670 -11.783023 -1182.043823 99 90 80
-28.284527 -10.520555 -1055.396240 101 92 82
-18.362881 -6.694899 -671.615784 98 90 77
-13.732779 -4.909593 -492.518250 98 90 77
-11.052194 -3.875994 -388.830200 101 93 80
-9.303987 -3.201908 -321.207550 100 92 79
-10.574330 -3.385926 -339.667755 100 94 81
-10.758239 -3.385926 -339.667755 99 93 80
-10.942146 -3.385926 -339.667755 95 89 78
-2.963295 -0.372409 -37.359161 17 11 16
-2.983523 -0.372409 -37.359161 25 19 20
-2.940936 -0.263484 -26.432108 99 94 85
-2.923864 -0.260686 -26.151413 99 94 85
3.435869 -0.492196 -46.832165 96 88 75
3.331321 -0.480767 -45.744732 100 93 78
3.226636 -0.469147 -44.639118 95 87 74
3.131511 -0.458753 -43.650066 101 94 79
3.040510 -0.448809 -42.703896 97 91 78
2.949199 -0.438666 -41.738834 97 91 78
2.861924 -0.428972 -40.816429 100 94 81
2.698361 -0.526399 -50.086601 37 18 13
2.684895 -0.529090 -50.342583 42 26 20
2.657638 -0.529090 -50.342583 79 66 58
2.621449 -0.527293 -50.171638 102 93 83
2.594284 -0.527293 -50.171638 100 92 79
2.571485 -0.528190 -50.256966 94 89 74
47.502079 -19.410973 -1846.943481 27 22 19
46.502079 -19.410973 -1846.943481 23 18 15
45.502079 -19.410973 -1846.943481 31 27 22
44.502079 -19.410973 -1846.943481 42 38 33
43.502079 -19.410973 -1846.943481 33 29 24
28.334719 -12.940648 -1231.295654 45 42 34
0.443776 -0.242637 -23.086794 103 96 81
0.431276 -0.242637 -23.086794 96 89 72
0.418776 -0.242637 -23.086794 102 95 78
0.409153 -0.244355 -23.250273 105 98 81
0.396253 -0.244163 -23.231993 102 94 81
0.383976 -0.244355 -23.250273 108 99 89
0.371680 -0.244548 -23.268579 78 68 61
0.358127 -0.295786 -28.143900 102 91 83
0.340296 -0.293550 -27.931093 99 90 80
0.323340 -0.291894 -27.773586 101 92 82
0.306287 -0.289987 -27.592060 102 93 83
0.289187 -0.287836 -27.387484 105 96 86
0.270350 -0.283631 -26.987303 105 97 84
0.252055 -0.279546 -26.598646 99 91 78
0.234280 -0.275577 -26.221025 103 95 82
0.217382 -0.272196 -25.899296 103 96 81
0.201593 -0.269831 -25.674280 102 95 80
0.185915 -0.267277 -25.431236 103 96 81
0.170677 -0.264996 -25.214245 102 95 80
-1.142704 -1.431224 -136.180161 99 92 75
-1.157749 -1.362174 -129.610062 97 93 74
-1.181294 -1.310445 -124.688164 100 96 77
-1.174471 -1.232443 -117.266251 99 95 76
-1.159728 -1.154556 -109.855377 96 92 73
-0.485118 -0.400743 -38.130447 99 96 81
-0.505764 -0.400743 -38.130447 91 91 75
-0.527089 -0.401260 -38.179710 97 96 82
-0.547761 -0.401260 -38.179710 78 76 65
-0.569168 -0.401780 -38.229103 30 27 19
-0.770591 -0.474886 -45.185162 15 10 11
-0.793842 -0.474161 -45.116177 17 12 13
-0.814539 -0.471999 -44.910480 25 20 21
-0.836313 -0.470569 -44.774387 37 31 32
-0.859254 -0.469857 -44.706650 29 24 23
-0.880794 -0.468440 -44.571789 17 12 9
-0.902206 -0.467031 -44.437737 17 13 8
-0.909847 -0.458753 -43.650066 16 13 5
-0.922579 -0.453395 -43.140285 14 12 2
-0.929651 -0.445589 -42.397556 28 23 14
-0.948524 -0.443679 -42.215851 61 54 45
-0.969995 -0.443046 -42.155628 78 72 61
-0.994238 -0.443679 -42.215851 92 86 75
-1.015644 -0.443046 -42.155628 103 97 86
-1.038469 -0.443046 -42.155628 102 96 85
-18.145531 -7.575014 -720.758423 105 96 86
-47.497921 -19.410973 -1846.943481 103 95 82
-48.497921 -19.410973 -1846.943481 104 96 83
-32.998615 -12.940648 -1231.295654 99 91 78
-20.199169 -7.764389 -738.777405 96 88 75
-14.713692 -5.545992 -527.698120 102 94 81
-11.160083 -3.834266 -364.828339 105 97 84
-11.499584 -3.882195 -369.388702 98 90 77
-11.699584 -3.882195 -369.388702 101 93 80
-11.899584 -3.882195 -369.388702 82 76 65
-2.967046 -0.393134 -37.406448 12 8 13
-2.987300 -0.393134 -37.406448 18 13 15
3.305735 -0.501652 -45.393387 96 89 74
3.212080 -0.491091 -44.437737 102 95 80
3.113118 -0.479553 -43.393681 94 87 72
3.027386 -0.469893 -42.519562 96 91 76
2.936756 -0.459319 -41.562721 98 93 78
2.850114 -0.449210 -40.647999 96 90 77
2.680329 -0.555401 -50.256966 29 13 7
2.653118 -0.555401 -50.256966 67 54 46
2.617005 -0.553518 -50.086601 104 95 85
2.585505 -0.552581 -50.001854 98 92 79
2.562768 -0.553518 -50.086601 101 96 81
2.535650 -0.553518 -50.086601 98 96 78
45.502079 -20.410973 -1846.943481 38 34 29
44.502079 -20.410973 -1846.943481 29 26 18
43.502079 -20.410973 -1846.943481 23 20 12
28.334719 -13.607315 -1231.295654 39 37 27
0.431276 -0.255137 -23.086794 93 86 69
0.421410 -0.256742 -23.231993 96 89 74
0.409153 -0.256944 -23.250273 104 97 82
0.396253 -0.256742 -23.231993 99 91 78
0.384278 -0.257146 -23.268579 113 104 95
0.371680 -0.257146 -23.268579 77 67 60
0.323340 -0.306932 -27.773586 105 96 86
0.306573 -0.305211 -27.617846 102 93 83
0.289187 -0.302665 -27.387484 100 91 81
0.270350 -0.298243 -26.987303 102 93 83
0.252055 -0.293947 -26.598646 103 94 84
0.234280 -0.289774 -26.221025 104 96 83
0.217192 -0.285968 -25.876616 99 92 77
0.201069 -0.282994 -25.607534 98 91 76
0.185755 -0.280804 -25.409369 101 94 79
-1.119867 -1.306302 -118.204384 101 97 78
-0.487004 -0.423025 -38.278622 96 93 78
-0.508387 -0.423574 -38.328270 104 103 89
-0.529827 -0.424124 -38.378048 89 87 76
-0.551322 -0.424676 -38.427952 35 32 24
-0.572873 -0.425229 -38.477989 21 17 12
-0.798720 -0.501652 -45.393387 48 43 44
-0.820776 -0.500116 -45.254356 40 35 36
-0.843986 -0.499351 -45.185162 36 30 31
-0.865803 -0.497829 -45.047401 22 17 16
-0.886141 -0.495562 -44.842331 27 22 19
-0.907665 -0.494063 -44.706650 51 47 42
-0.920728 -0.488155 -44.172043 59 57 47
-0.927998 -0.479553 -43.393681 69 66 52
-0.936368 -0.471930 -42.703896 81 75 64
-0.951242 -0.467873 -42.336815 96 90 77
-0.975562 -0.468545 -42.397556 100 94 81
-1.001391 -0.469893 -42.519562 101 95 82
-1.024413 -0.469893 -42.519562 100 94 81
-45.497921 -20.410973 -1846.943481 97 91 78
-46.497921 -20.410973 -1846.943481 103 95 82
-31.665281 -13.607315 -1231.295654 107 99 86
-12.215767 -4.413183 -399.339142 106 97 84
-12.648199 -4.413183 -399.339142 103 94 84
-12.864415 -4.413183 -399.339142 84 75 66
-2.632036 -0.385113 -34.847992 7 7 7
-2.669794 -0.387857 -35.096313 9 11 11
-2.859236 -0.406694 -36.800865 5 10 11
-2.915469 -0.411823 -37.264938 9 12 16
-2.939352 -0.412343 -37.311989 4 4 10
-2.967046 -0.413387 -37.406448 6 5 9
2.653118 -0.582612 -50.256966 33 20 12
2.617005 -0.580637 -50.086601 57 48 38
2.581137 -0.578675 -49.917393 67 61 48
2.549803 -0.577699 -49.833214 94 91 76
20.973871 -9.258799 -798.678284 36 30 25
17.675192 -7.966874 -687.234802 34 30 25
0.409153 -0.269532 -23.250273 92 84 71
0.396253 -0.269320 -23.231993 92 83 73
0.384278 -0.269745 -23.268579 107 98 89
0.371387 -0.269532 -23.250273 73 63 56
-0.528454 -0.443751 -38.278622 53 51 41
-0.550606 -0.444903 -38.378048 21 17 12
-0.572873 -0.446062 -38.477989 25 20 19
-0.802418 -0.528666 -45.603542 65 60 59
-0.824564 -0.527039 -45.463223 45 40 39
-0.849180 -0.527039 -45.463223 20 12 12
-0.872453 -0.526230 -45.393387 35 27 27
-0.920194 -0.525423 -45.323765 94 88 81
-0.927661 -0.515927 -44.504662 98 94 83
-0.941828 -0.510545 -44.040382 102 97 82
-0.945937 -0.500110 -43.140285 101 95 82
-0.951242 -0.490796 -42.336815 98 93 78
-0.972771 -0.490094 -42.276245 95 90 75
-1.007188 -0.495768 -42.765697 96 91 76
-1.025889 -0.493625 -42.580830 99 94 79
-1.025305 -0.482501 -41.621262 101 96 81
-46.497921 -21.410973 -1846.943481 103 98 83
-31.665281 -14.273982 -1231.295654 105 100 85
-13.100967 -4.964863 -428.276764 99 89 79
-2.657103 -0.407828 -35.179874 4 2 1
-2.695404 -0.410762 -35.432968 6 8 8
-2.744202 -0.415243 -35.819511 8 13 12
-2.926540 -0.433640 -37.406448 3 6 10
-2.950528 -0.434190 -37.453861 4 5 9
-2.982146 -0.435847 -37.596813 4 3 7
7.786011 -3.201567 -263.849060 101 92 82
8.000311 -3.351173 -276.178467 104 95 85
7.924842 -3.382788 -278.783936 100 93 84
23.295095 -10.546340 -869.149902 32 23 19
20.973871 -9.691232 -798.678284 40 34 29
18.096029 -8.537514 -703.597534 33 27 22
0.383674 -0.281899 -23.231993 105 96 87
0.371095 -0.281899 -23.231993 73 64 55
-0.817558 -0.563798 -46.463985 37 32 29
-0.836142 -0.559400 -46.101555 21 16 13
-1.767024 -0.480021 -39.559700 18 15 7
-1.793244 -0.481309 -39.665901 19 16 8
-130.497925 -22.410973 -1846.943481 20 10 3
-131.497925 -22.410973 -1846.943481 28 16 10
-132.497925 -22.410973 -1846.943481 45 33 29
-2.628395 -0.428406 -35.305969 29 20 17
-2.647511 -0.428406 -35.305969 25 17 17
-2.673014 -0.429432 -35.390533 9 5 4
-2.708394 -0.432019 -35.603729 7 5 5
-2.740880 -0.434111 -35.776146 5 7 7
-2.756913 -0.433586 -35.732883 6 10 11
-2.841543 -0.443782 -36.573139 5 9 10
-2.926540 -0.453893 -37.406448 2 5 9
-2.954273 -0.455045 -37.501392 6 7 11
3.131148 -0.701452 -55.339130 56 17 15
8.305079 -3.567386 -281.438995 97 88 75
8.231089 -3.601688 -284.145142 101 91 81
8.317161 -3.708669 -292.585114 97 88 78
22.000923 -10.404877 -820.863770 30 19 15
20.421928 -9.857251 -777.660400 27 18 14
17.675192 -8.711060 -687.234802 37 28 24
0.764680 -0.384970 -30.371117 39 33 28
0.736131 -0.378742 -29.879774 33 27 22
0.709197 -0.373083 -29.433363 29 23 16
0.682386 -0.367231 -28.971663 32 26 19
0.655770 -0.361211 -28.496717 19 14 5
-0.973972 -0.608077 -47.972557 107 98 88
-0.974631 -0.592683 -46.758064 101 93 80
-0.975257 -0.578049 -45.603542 98 90 77
-0.975854 -0.564120 -44.504662 99 93 80
-0.976422 -0.550846 -43.457493 96 90 77
-0.976964 -0.538183 -42.458469 100 94 81
-0.977481 -0.526089 -41.504349 100 94 81
-0.977976 -0.514527 -40.592163 97 92 77
-2.032373 -0.674911 -53.245216 12 9 5
-1.764662 -0.500769 -39.506813 19 17 7
-1.783667 -0.500101 -39.454067 21 19 9
-2.814746 -0.770732 -60.804722 40 38 28
-2.835998 -0.767573 -60.555523 34 33 23
-83.518669 -14.983023 -1182.043823 17 5 0
-80.921799 -14.406753 -1136.580566 23 9 3
-81.537186 -14.406753 -1136.580566 23 6 3
-133.497925 -23.410973 -1846.943481 32 15 12
-2.628395 -0.447522 -35.305969 69 54 51
-2.650678 -0.448057 -35.348202 32 20 18
-2.692360 -0.451840 -35.646679 14 6 6
-2.904416 -0.477166 -37.644707 13 15 16
-2.939778 -0.479610 -37.837509 8 10 11
-2.922840 -0.473547 -37.359161 9 11 12
3.142920 -0.734165 -55.547173 61 19 20
3.089614 -0.728686 -55.132641 53 16 12
2.380542 -0.635082 -48.050564 101 97 79
2.350703 -0.634051 -47.972557 96 89 72
8.549346 -3.829172 -289.716614 101 92 78
8.560332 -3.905756 -295.510956 101 92 79
9.032616 -4.199737 -317.753723 98 88 78
23.086664 -11.159302 -844.317017 94 85 76
22.000923 -10.849321 -820.863770 51 41 34
19.898289 -10.014758 -757.720398 28 17 13
17.675192 -9.083153 -687.234802 35 24 20
0.756901 -0.397330 -30.062153 26 17 13
0.728762 -0.390967 -29.580677 26 17 13
0.702202 -0.385183 -29.143093 22 16 11
0.675105 -0.378832 -28.662556 33 27 22
0.650127 -0.373399 -28.251526 36 30 23
0.627038 -0.368815 -27.904716 45 39 32
-0.973972 -0.634051 -47.972557 101 93 80
-0.974631 -0.617999 -46.758064 102 92 82
-0.975257 -0.602740 -45.603542 103 94 81
-0.975854 -0.588216 -44.504662 100 91 81
-0.976422 -0.574376 -43.457493 96 90 77
-48.497921 -24.410973 -1846.943481 101 96 81
-49.497921 -24.410973 -1846.943481 103 98 83
-51.497921 -24.410973 -1846.943481 105 99 86
-1.978589 -0.694974 -52.582020 48 45 37
-2.017830 -0.698704 -52.864216 66 64 56
-2.050120 -0.699956 -52.958954 76 74 66
-1.729399 -0.518005 -39.192436 18 15 7
-1.755275 -0.519382 -39.296669 20 18 8
-1.771839 -0.518005 -39.192436 24 22 12
-2.861855 -0.817104 -61.822376 39 37 27
-2.859436 -0.806974 -61.055984 20 19 9
-77.332100 -14.465761 -1094.484985 30 17 9
-72.550583 -13.468122 -1019.003296 25 9 2
-64.241417 -11.835623 -895.487732 37 18 15
-73.654030 -13.468122 -1019.003296 41 20 18
-134.497925 -24.410973 -1846.943481 49 25 27
-2.628395 -0.466637 -35.305969 63 44 39
-2.650678 -0.467196 -35.348202 37 22 19
-3.021009 -0.513915 -38.883022 9 11 12
-3.002554 -0.507241 -38.378048 13 15 16
-3.015501 -0.505927 -38.278622 2 4 4
3.178770 -0.772957 -56.180790 73 29 30
3.112844 -0.764240 -55.547173 65 27 23
3.071223 -0.761377 -55.339130 51 17 11
2.430268 -0.667612 -48.523968 94 94 76
2.380542 -0.661098 -48.050564 100 96 77
2.350703 -0.660025 -47.972557 97 91 72
2.324729 -0.660025 -47.972557 101 94 75
2.302493 -0.661098 -48.050564 100 92 75
8.466342 -3.947335 -286.903839 103 92 78
9.106737 -4.325272 -314.373352 102 91 77
11.667129 -5.646883 -410.431885 100 88 76
22.271170 -10.988528 -798.678284 100 88 78
22.445368 -11.293766 -820.863770 94 83 75
21.406305 -10.988528 -798.678284 77 65 59
19.898289 -10.425014 -757.720398 38 27 23
0.753833 -0.411931 -29.940319 36 24 22
0.725856 -0.405359 -29.462708 34 22 20
0.699443 -0.399387 -29.028582 42 33 29
0.672496 -0.392827 -28.551783 50 41 37
0.648887 -0.387954 -28.197611 40 31 27
0.625856 -0.383200 -27.852118 44 35 31
-1.010617 -0.723444 -52.582020 96 88 75
-1.010323 -0.703418 -51.126465 105 96 83
-1.010045 -0.684471 -49.749321 104 95 82
-1.009781 -0.666517 -48.444420 105 93 83
-1.009531 -0.649482 -47.206223 98 88 78
-1.009294 -0.633295 -46.029743 96 87 78
-1.009068 -0.617896 -44.910480 101 92 82
-48.497921 -25.410973 -1846.943481 103 98 83
-49.497921 -25.410973 -1846.943481 101 96 81
-50.497921 -25.410973 -1846.943481 101 96 81
-51.497921 -25.410973 -1846.943481 100 95 80
-52.497921 -25.410973 -1846.943481 101 94 79
-53.497921 -25.410973 -1846.943481 101 94 79
-1.996350 -0.729938 -53.054031 79 77 67
-2.028717 -0.731251 -53.149452 96 94 83
-1.731696 -0.539941 -39.244484 20 18 8
-1.755275 -0.540659 -39.296669 24 22 12
-1.769492 -0.538511 -39.140526 29 27 17
-2.864336 -0.861389 -62.608253 34 32 21
-2.892107 -0.859568 -62.475891 26 24 13
-2.907493 -0.854150 -62.082134 11 11 0
-2.874675 -0.834857 -60.679867 7 8 0
-2.889728 -0.829746 -60.308357 0 2 0
-2.779207 -0.780375 -56.719952 4 6 0
-2.726195 -0.757124 -55.029972 7 8 0
-2.695750 -0.740575 -53.827133 13 11 3
-2.685757 -0.729938 -53.054031 18 16 6
-2.666608 -0.717064 -52.118336 18 13 4
-69.598892 -13.552519 -985.036499 41 25 18
-60.113338 -11.616445 -844.317017 29 11 4
-55.788601 -10.699357 -777.660400 54 31 29
-57.728832 -10.988528 -798.678284 56 33 31
-2.628395 -0.485753 -35.305969 92 70 64
-2.650678 -0.486334 -35.348202 94 75 72
-2.893136 -0.523263 -38.032299 12 2 2
-2.917483 -0.523938 -38.081310 14 8 9
-2.941893 -0.524614 -38.130447 11 8 10
-3.001264 -0.531471 -38.628883 14 13 15
-2.990901 -0.525971 -38.229103 9 9 9
14.882867 -2.360757 -165.089920 77 75 67
13.937016 -2.224082 -155.532089 81 78 73
3.197004 -0.807984 -56.503052 63 23 25
3.160369 -0.806442 -56.395222 57 22 18
3.123873 -0.804906 -56.287800 52 23 16
3.093397 -0.804906 -56.287800 51 23 16
3.068766 -0.806442 -56.395222 69 43 36
2.662079 -0.736194 -51.482746 99 93 80
2.485105 -0.701953 -49.088200 97 94 79
2.422313 -0.691613 -48.365131 90 88 70
2.380542 -0.687115 -48.050564 101 97 79
2.350703 -0.685999 -47.972557 100 94 75
2.328509 -0.687115 -48.050564 103 96 77
2.302493 -0.687115 -48.050564 102 94 77
14.033332 -6.927468 -484.444183 105 94 80
23.543808 -12.073587 -844.317017 99 87 75
23.086664 -12.073587 -844.317017 99 87 77
21.406305 -11.420961 -798.678284 92 81 73
0.749278 -0.425554 -29.759411 46 34 32
0.721539 -0.418806 -29.287508 43 30 28
0.694667 -0.412269 -28.830338 41 29 27
0.669263 -0.406323 -28.414515 43 32 28
0.646419 -0.401688 -28.090395 31 22 18
0.624678 -0.397531 -27.799713 31 22 18
-1.029789 -0.788387 -55.132641 99 91 78
-1.028925 -0.765535 -53.534595 100 93 78
-1.028111 -0.743971 -52.026577 102 94 81
-1.027340 -0.723588 -50.601192 100 91 78
-1.026611 -0.704293 -49.251827 102 92 82
-1.025920 -0.685999 -47.972557 102 93 84
-1.026889 -0.669692 -46.832165 101 94 85
-47.497921 -26.410973 -1846.943481 102 96 83
-48.497921 -26.410973 -1846.943481 103 95 82
-49.497921 -26.410973 -1846.943481 99 91 78
-50.497921 -26.410973 -1846.943481 104 96 83
-51.497921 -26.410973 -1846.943481 100 92 79
-52.497921 -26.410973 -1846.943481 101 92 79
-53.497921 -26.410973 -1846.943481 99 90 77
-2.007160 -0.762772 -53.341328 72 68 57
-2.036041 -0.762772 -53.341328 96 93 79
-1.736307 -0.562684 -39.348995 23 21 11
-1.757612 -0.562684 -39.348995 28 26 16
-1.769492 -0.559703 -39.140526 33 31 21
-2.888818 -0.902939 -63.143368 24 23 13
-2.910568 -0.899097 -62.874672 11 10 0
-2.925934 -0.893394 -62.475891 11 10 0
-2.880590 -0.869497 -60.804722 9 10 1
-2.866329 -0.855416 -59.820030 0 4 0
-2.818832 -0.831842 -58.171448 0 4 0
-2.752789 -0.803376 -56.180790 3 5 0
-2.706038 -0.781101 -54.623096 3 5 0
-2.676148 -0.755949 -52.864216 15 13 5
-80.306412 -16.252907 -1136.580566 34 15 8
-72.550583 -14.571571 -1019.003296 57 35 29
-60.570480 -12.073587 -844.317017 63 38 34
-82.152573 -16.252907 -1136.580566 63 35 34
-89.665283 -17.607315 -1231.295654 66 38 37
-2.587073 -0.504267 -35.263836 64 36 35
-2.599961 -0.503066 -35.179874 72 46 40
-2.628395 -0.504869 -35.305969 81 57 51
-2.650678 -0.505473 -35.348202 82 62 57
-2.928806 -0.546670 -38.229103 24 16 16
-2.953325 -0.547378 -38.278622 23 18 19
-2.993438 -0.550946 -38.528156 12 10 10
-2.998660 -0.548088 -38.328270 9 9 9
-3.015501 -0.547378 -38.278622 8 8 8
17.737061 -2.885365 -194.415100 89 89 73
16.543415 -2.707257 -182.414169 92 92 74
15.136552 -2.491907 -167.903946 90 90 72
13.937016 -2.308292 -155.532089 90 90 74
12.839187 -2.139393 -144.151688 96 96 80
11.837255 -1.984505 -133.715363 92 91 77
11.017090 -1.858371 -125.216507 90 88 77
10.173359 -1.726675 -116.342896 98 96 86
9.406715 -1.606504 -108.245773 93 91 81
8.830564 -1.517563 -102.252930 85 82 74
8.369746 -1.447444 -97.528366 85 81 76
7.949632 -1.383519 -93.221123 90 85 82
3.203129 -0.840183 -56.611294 48 16 17
3.172477 -0.840183 -56.611294 40 12 11
3.141826 -0.840183 -56.611294 37 15 10
3.111175 -0.840183 -56.611294 67 48 41
3.080523 -0.840183 -56.611294 101 84 75
3.032444 -0.835382 -56.287800 106 89 80
2.676065 -0.768083 -51.753231 103 94 81
2.571485 -0.745877 -50.256966 103 95 82
2.480984 -0.727323 -49.006794 98 90 77
2.410478 -0.714292 -48.128819 96 90 77
2.376677 -0.711973 -47.972557 102 95 80
2.350703 -0.711973 -47.972557 99 92 75
2.320961 -0.710819 -47.894806 96 89 72
23.334257 -12.182654 -820.863770 99 90 76
25.751040 -13.705486 -923.471741 100 91 77
25.251040 -13.705486 -923.471741 95 86 73
0.717982 -0.432520 -29.143093 34 18 19
0.692639 -0.426630 -28.746202 35 22 20
0.667338 -0.420494 -28.332787 32 20 16
0.643971 -0.415318 -27.983992 30 19 15
0.626446 -0.413751 -27.878391 39 31 24
0.609627 -0.412583 -27.799713 36 29 20
0.592902 -0.411422 -27.721478 38 31 22
-1.051365 -0.835382 -56.287800 98 89 79
-1.049846 -0.810676 -54.623096 102 94 81
-1.048414 -0.787389 -53.054031 100 91 81
-1.047062 -0.765402 -51.572594 99 93 82
-1.045784 -0.744610 -50.171638 100 93 84
-1.044573 -0.724918 -48.844788 97 92 83
-46.497921 -27.410973 -1846.943481 103 97 86
-47.497921 -27.410973 -1846.943481 102 93 83
-48.497921 -27.410973 -1846.943481 105 95 85
-49.497921 -27.410973 -1846.943481 97 85 75
-50.497921 -27.410973 -1846.943481 91 75 68
-51.497921 -27.410973 -1846.943481 94 78 71
-52.497921 -27.410973 -1846.943481 96 83 75
-53.497921 -27.410973 -1846.943481 97 84 76
-2.007160 -0.791653 -53.341328 65 58 49
-2.032373 -0.790226 -53.245216 100 94 83
-2.042798 -0.783171 -52.769814 58 52 41
-1.740944 -0.585548 -39.454067 30 27 19
-1.759956 -0.584767 -39.401463 31 29 21
-1.767152 -0.580126 -39.088753 31 29 21
-2.895004 -0.939134 -63.278576 14 15 6
-2.910568 -0.933140 -62.874672 11 13 7
-2.925934 -0.927221 -62.475891 6 8 2
-2.862918 -0.896883 -60.431690 3 7 2
-2.815043 -0.871920 -58.749695 1 5 0
-130.497925 -27.410973 -1846.943481 62 34 27
-131.497925 -27.410973 -1846.943481 70 42 35
-2.631285 -0.528404 -35.603729 66 40 34
-2.656965 -0.529681 -35.689728 70 46 40
-2.676288 -0.529681 -35.689728 72 50 44
-2.896864 -0.565175 -38.081310 65 49 43
-2.928806 -0.567368 -38.229103 53 41 37
-2.976458 -0.572553 -38.578453 21 14 11
-3.013080 -0.575558 -38.780964 20 16 15
-3.026134 -0.574052 -38.679443 7 7 7
-3.051070 -0.574804 -38.730137 6 8 9
179.502075 -28.410973 -1846.943481 95 85 75
17.973555 -3.030504 -197.007309 96 92 73
16.543415 -2.806022 -182.414169 92 91 71
14.966478 -2.553795 -166.017395 88 89 69
13.649655 -2.343173 -152.325241 93 94 74
12.533491 -2.164645 -140.719498 91 92 72
11.575368 -2.011396 -130.757065 86 87 67
10.743938 -1.878411 -122.111969 88 88 70
10.015633 -1.761921 -114.539131 93 90 75
9.372384 -1.659035 -107.850716 92 89 75
8.800115 -1.567502 -101.900330 90 86 75
8.342215 -1.495314 -97.207550 92 87 78
7.899791 -1.425002 -92.636665 100 92 85
7.542269 -1.369203 -89.009323 98 89 85
3.203129 -0.870834 -56.611294 41 17 19
3.172477 -0.870834 -56.611294 32 11 10
3.141826 -0.870834 -56.611294 41 22 19
3.111175 -0.870834 -56.611294 87 71 65
3.080523 -0.870834 -56.611294 103 88 79
3.044040 -0.869169 -56.503052 105 93 81
2.676065 -0.796104 -51.753231 101 92 79
2.571485 -0.773088 -50.256966 100 91 78
2.480984 -0.753857 -49.006794 94 85 75
2.410478 -0.740351 -48.128819 95 87 74
2.380542 -0.739147 -48.050564 101 94 79
2.346893 -0.736751 -47.894806 101 94 79
2.317206 -0.735559 -47.817307 96 89 72
24.970705 -13.775017 -895.487732 103 94 80
0.689287 -0.440054 -28.607063 29 17 15
0.666061 -0.435001 -28.278561 28 17 13
0.640333 -0.428037 -27.825890 34 24 17
0.625856 -0.428441 -27.852118 38 29 20
0.609054 -0.427233 -27.773586 39 32 23
0.592902 -0.426431 -27.721478 25 18 9
-50.497921 -28.410973 -1846.943481 67 48 43
-51.497921 -28.410973 -1846.943481 56 37 32
-52.497921 -28.410973 -1846.943481 57 41 35
-53.497921 -28.410973 -1846.943481 67 51 45
-1.978279 -0.820534 -53.341328 88 80 73
-2.007160 -0.820534 -53.341328 95 88 79
-2.028717 -0.817582 -53.149452 89 80 70
-1.745605 -0.608535 -39.559700 30 27 19
-1.759956 -0.606101 -39.401463 32 30 22
-1.767152 -0.601290 -39.088753 26 24 16
-2.892107 -0.961048 -62.475891 11 12 8
-2.901398 -0.952989 -61.951984 5 6 4
-2.839689 -0.922060 -59.941372 0 3 1
-2.803895 -0.900150 -58.517021 0 3 1
-2.737986 -0.869169 -56.503052 0 3 1
-2.666605 -0.837156 -54.421906 0 2 2
-130.497925 -28.410973 -1846.943481 70 41 34
-87.665283 -18.940649 -1231.295654 71 42 35
-2.819296 -0.578340 -37.596813 72 50 44
-2.836044 -0.577606 -37.549042 68 49 42
-2.896864 -0.585793 -38.081310 65 47 40
-2.928806 -0.588067 -38.229103 51 38 30
-2.984250 -0.594994 -38.679443 24 13 9
-3.028980 -0.599704 -38.985615 21 14 11
-3.071196 -0.599704 -38.985615 12 11 13
181.502075 -29.410973 -1846.943481 94 85 72
180.502075 -29.410973 -1846.943481 91 82 69
179.502075 -29.410973 -1846.943481 92 82 72
178.502075 -29.410973 -1846.943481 97 88 79
16.242626 -2.851973 -179.097549 95 93 75
14.718415 -2.599865 -163.265717 97 95 77
13.441792 -2.388708 -150.005569 93 91 73
12.356963 -2.209275 -138.737534 92 90 72
11.423726 -2.054915 -129.044083 92 90 72
10.612380 -1.920717 -120.616714 93 91 73
9.900511 -1.802971 -113.222588 95 92 77
9.270878 -1.698829 -106.682655 90 87 73
8.710011 -1.606060 -100.856979 91 85 74
8.207227 -1.522898 -95.634613 91 84 75
7.753948 -1.447925 -90.926445 96 87 78
7.364803 -1.384046 -86.914986 95 85 78
6.988857 -1.321841 -83.008698 90 80 73
3.203129 -0.901486 -56.611294 35 15 14
3.172477 -0.901486 -56.611294 29 11 10
3.141826 -0.901486 -56.611294 44 27 24
3.111175 -0.901486 -56.611294 104 88 82
3.080523 -0.901486 -56.611294 103 88 79
2.782042 -0.847884 -53.245216 101 93 76
2.676065 -0.824125 -51.753231 101 92 78
2.575866 -0.801662 -50.342583 104 95 81
2.480984 -0.780391 -49.006794 101 93 80
2.406558 -0.765164 -48.050564 100 92 79
2.380542 -0.765164 -48.050564 103 96 81
2.346893 -0.762683 -47.894806 104 97 82
2.313462 -0.760219 -47.740059 101 94 77
24.236273 -13.840458 -869.149902 105 96 83
0.687955 -0.454662 -28.551783 26 21 18
0.628224 -0.445199 -27.957518 33 24 15
-1.960012 -0.854039 -53.631752 96 90 83
-1.989051 -0.854039 -53.631752 95 87 80
-2.018089 -0.854039 -53.631752 91 84 75
-2.039723 -0.850950 -53.437786 48 42 31
-1.750291 -0.631645 -39.665901 31 27 22
-1.767024 -0.629954 -39.559700 36 33 28
-2.656123 -0.924510 -58.057163 8 7 3
-2.698159 -0.928157 -58.286186 7 8 4
-2.835998 -0.964294 -60.555523 4 5 3
-2.777712 -0.933682 -58.633125 2 2 2
-2.622161 -0.871436 -54.724251 2 3 1
-2.608318 -0.857150 -53.827133 2 3 1
-83.518669 -18.823023 -1182.043823 67 38 31
-87.665283 -19.607315 -1231.295654 65 36 29
-2.883678 -0.607979 -38.179710 77 58 50
-2.908107 -0.608765 -38.229103 71 52 44
-2.936403 -0.610344 -38.328270 49 31 24
-2.984250 -0.615937 -38.679443 37 22 19
-3.036993 -0.622454 -39.088753 37 25 23
182.502075 -30.410973 -1846.943481 92 85 70
181.502075 -30.410973 -1846.943481 96 87 74
180.502075 -30.410973 -1846.943481 90 81 68
179.502075 -30.410973 -1846.943481 89 79 69
178.502075 -30.410973 -1846.943481 97 88 78
177.502075 -30.410973 -1846.943481 97 88 78
16.048103 -2.913626 -176.952667 98 93 78
14.557558 -2.658883 -161.481400 92 89 74
13.306700 -2.445103 -148.497971 96 93 78
12.242015 -2.263142 -137.446960 88 86 68
11.324819 -2.106388 -127.926819 91 89 71
10.526450 -1.969941 -119.640060 98 95 80
9.825221 -1.850097 -112.361580 87 84 70
9.204420 -1.743998 -105.917908 91 88 74
8.650960 -1.649409 -100.173203 94 88 77
8.154448 -1.564552 -95.019600 93 87 76
7.706523 -1.487999 -90.370323 94 85 75
7.300388 -1.418588 -86.154800 97 88 78
6.930455 -1.355364 -82.315033 92 83 73
3.160369 -0.928579 -56.395222 32 17 15
3.129834 -0.928579 -56.395222 43 26 23
3.093397 -0.926811 -56.287800 98 82 76
3.062920 -0.926811 -56.287800 100 88 78
2.787064 -0.878295 -53.341328 101 93 76
2.680760 -0.853641 -51.844028 98 90 73
2.580261 -0.830334 -50.428490 102 93 79
2.485105 -0.808265 -49.088200 101 93 80
2.398757 -0.788615 -47.894806 98 90 77
2.376677 -0.789895 -47.972557 99 92 77
2.335537 -0.784799 -47.663059 100 93 78
0.689287 -0.471032 -28.607063 19 16 11
-0.618027 -0.422375 -25.651993 102 96 85
-0.633565 -0.423477 -25.718969 73 64 54
-0.648055 -0.423846 -25.741373 45 34 26
-1.966667 -0.899400 -54.623096 21 15 8
-2.003649 -0.902738 -54.825779 74 69 60
-2.033334 -0.902738 -54.825779 98 91 82
-2.044057 -0.894440 -54.321869 75 68 59
-1.755002 -0.654880 -39.772671 28 24 19
-1.771767 -0.653122 -39.665901 33 30 25
-2.714220 -0.965428 -58.633125 8 6 5
-2.671751 -0.939335 -57.048447 3 3 3
-2.621661 -0.911190 -55.339130 3 3 3
-2.588605 -0.889535 -54.023941 1 2 0
-2.608318 -0.886294 -53.827133 5 3 2
-2.647106 -0.889535 -54.023941 8 4 3
-2.666606 -0.886294 -53.827133 6 2 1
-86.998619 -20.273981 -1231.295654 61 33 26
183.502075 -31.410973 -1846.943481 91 83 70
182.502075 -31.410973 -1846.943481 91 84 69
181.502075 -31.410973 -1846.943481 97 88 75
180.502075 -31.410973 -1846.943481 95 86 73
179.502075 -31.410973 -1846.943481 95 86 73
178.502075 -31.410973 -1846.943481 99 91 78
177.502075 -31.410973 -1846.943481 97 89 76
14.095414 -2.659130 -156.355011 96 90 77
13.109076 -2.487998 -146.292557 94 88 75
12.185339 -2.326739 -136.810623 93 88 73
11.324819 -2.175652 -127.926819 93 88 73
10.484005 -2.026514 -119.157646 90 85 70
9.788005 -1.903695 -111.935966 90 84 71
9.171547 -1.794913 -105.539627 94 88 75
8.621734 -1.697890 -99.834785 94 86 73
8.076539 -1.600559 -94.111771 96 88 75
7.613393 -1.518355 -89.278236 91 83 70
7.258067 -1.456741 -85.655350 97 89 76
6.892059 -1.392176 -81.858994 97 88 75
6.574556 -1.336637 -78.593338 98 89 75
3.046967 -0.942918 -55.442955 78 65 57
3.005670 -0.939394 -55.235691 101 92 79
2.792104 -0.908817 -53.437786 102 95 76
2.685471 -0.883261 -51.935143 103 96 79
2.584672 -0.859104 -50.514694 105 98 83
2.489240 -0.836232 -49.169876 103 95 82
2.406558 -0.817196 -48.050564 100 92 79
0.690624 -0.487464 -28.662556 26 24 16
-0.605188 -0.437022 -25.696606 101 94 79
-0.618027 -0.436264 -25.651993 91 83 70
-0.634117 -0.437784 -25.741373 48 38 28
-0.649186 -0.438548 -25.786297 34 23 15
-1.988723 -0.939394 -55.235691 63 58 49
-2.018630 -0.939394 -55.235691 80 75 66
-2.048536 -0.939394 -55.235691 92 87 78
-2.070702 -0.935895 -55.029972 38 33 24
-1.740496 -0.679156 -39.933914 22 18 13
-1.759739 -0.678240 -39.880020 24 20 15
-1.776537 -0.676414 -39.772671 23 20 16
-2.781825 -1.034106 -60.804722 11 9 8
-2.808967 -1.031983 -60.679867 11 9 8
-2.818670 -1.023575 -60.185532 2 2 2
-2.626579 -0.942918 -55.442955 1 1 1
-2.579175 -0.915438 -53.827133 3 1 0
-2.617855 -0.918785 -54.023941 6 4 3
-2.651954 -0.920468 -54.122887 11 7 6
-2.671472 -0.917109 -53.925358 12 8 7
-2.700669 -0.917109 -53.925358 19 12 9
184.502075 -32.410973 -1846.943481 52 44 31
183.502075 -32.410973 -1846.943481 94 86 73
182.502075 -32.410973 -1846.943481 92 85 70
181.502075 -32.410973 -1846.943481 94 85 72
180.502075 -32.410973 -1846.943481 93 84 71
179.502075 -32.410973 -1846.943481 92 83 70
178.502075 -32.410973 -1846.943481 94 86 73
12.126847 -2.346496 -133.715363 94 86 73
12.220336 -2.378787 -135.555481 92 86 75
12.202918 -2.389749 -136.180161 97 91 78
12.073546 -2.378787 -135.555481 93 87 74
11.324819 -2.244916 -127.926819 93 88 73
10.358698 -2.066038 -117.733452 94 89 74
9.641915 -1.934983 -110.265282 88 82 69
9.138908 -1.845465 -105.164040 97 91 78
8.535228 -1.734366 -98.833099 98 90 77
7.731809 -1.581023 -90.094803 102 94 81
7.368518 -1.516303 -86.406715 92 84 71
7.154381 -1.481645 -84.431702 94 86 73
6.797905 -1.416873 -80.740700 100 91 77
6.454395 -1.353983 -77.156906 100 92 75
6.140083 -1.296439 -73.877739 98 90 73
5.879598 -1.249580 -71.207458 100 92 75
5.650427 -1.208801 -68.883675 100 92 75
5.435741 -1.170599 -66.706764 102 93 79
2.955943 -0.953264 -54.321869 99 90 77
2.685471 -0.911381 -51.935143 102 96 77
2.584672 -0.886454 -50.514694 103 96 79
2.489240 -0.862855 -49.169876 103 96 81
-0.604138 -0.450152 -25.651993 105 96 82
-0.618027 -0.450152 -25.651993 64 55 42
-0.635224 -0.452509 -25.786297 29 20 7
-1.966167 -0.972937 -55.442955 86 84 73
-1.996185 -0.972937 -55.442955 94 90 79
-2.026204 -0.972937 -55.442955 92 88 77
-2.052372 -0.971115 -55.339130 70 65 56
-2.078443 -0.969300 -55.235691 23 18 9
-1.740496 -0.700778 -39.933914 21 17 12
-1.759739 -0.699832 -39.880020 23 19 14
-1.776537 -0.697948 -39.772671 16 13 9
-2.760262 -1.071437 -61.055984 13 10 6
-2.776113 -1.064837 -60.679867 11 9 8
-2.808967 -1.064837 -60.679867 9 7 6
-2.830198 -1.060482 -60.431690 2 1 3
-2.676356 -0.948036 -54.023941 12 8 7
183.502075 -33.410973 -1846.943481 95 87 74
182.502075 -33.410973 -1846.943481 96 88 75
181.502075 -33.410973 -1846.943481 98 89 76
180.502075 -33.410973 -1846.943481 98 89 76
179.502075 -33.410973 -1846.943481 94 85 71
178.502075 -33.410973 -1846.943481 91 84 69
11.684356 -2.344630 -129.610062 96 87 77
11.821577 -2.386498 -131.924530 92 84 71
11.909653 -2.418894 -133.715363 94 86 73
11.276005 -2.304205 -127.375412 95 88 73
10.317592 -2.121332 -117.266251 92 85 70
9.606071 -1.987270 -109.855377 95 88 73
7.262343 -1.540564 -85.161659 93 84 71
6.994506 -1.493228 -82.544960 93 84 71
6.670331 -1.433178 -79.225456 98 89 75
6.322336 -1.367201 -75.578247 100 92 75
6.034480 -1.313453 -72.607117 96 88 71
5.809603 -1.272799 -70.359749 99 92 73
5.598229 -1.234586 -68.247337 94 88 69
5.399178 -1.198600 -66.258064 93 86 69
2.484579 -0.688886 -38.081310 43 32 28
2.414183 -0.674969 -37.311989 48 31 28
2.346576 -0.661603 -36.573139 55 34 32
2.281594 -0.648757 -35.862980 43 23 18
2.902587 -0.964938 -53.341328 80 73 58
-0.591275 -0.464848 -25.696606 101 90 76
-0.604138 -0.464041 -25.651993 97 86 72
-0.618027 -0.464041 -25.651993 46 34 22
-1.932522 -1.001078 -55.339130 35 33 23
-1.962485 -1.001078 -55.339130 94 92 81
-1.992447 -1.001078 -55.339130 98 94 83
-2.022410 -1.001078 -55.339130 93 89 78
-2.052372 -1.001078 -55.339130 45 40 31
-2.078443 -0.999207 -55.235691 29 23 16
-2.566298 -1.182689 -65.378532 23 20 12
-2.613260 -1.187946 -65.669098 19 16 8
-2.625478 -1.177479 -65.090523 17 14 6
-1.757368 -0.720452 -39.826275 27 23 18
-1.776537 -0.719483 -39.772671 16 13 8
-2.691388 -0.993635 -54.927689 5 3 2
-2.696071 -0.984485 -54.421906 9 5 4
-2.695750 -0.973726 -53.827133 10 5 2
183.502075 -34.410973 -1846.943481 95 86 73
182.502075 -34.410973 -1846.943481 96 88 75
181.502075 -34.410973 -1846.943481 94 85 72
180.502075 -34.410973 -1846.943481 94 85 72
179.502075 -34.410973 -1846.943481 91 82 68
178.502075 -34.410973 -1846.943481 90 83 68
11.684356 -2.414805 -129.610062 97 89 76
11.821577 -2.457927 -131.924530 96 88 75
11.909653 -2.491292 -133.715363 94 87 72
11.374058 -2.393807 -128.483032 92 85 70
7.039199 -1.537921 -82.544960 95 86 73
6.634755 -1.468202 -78.802925 94 85 71
6.322336 -1.408122 -75.578247 95 87 70
6.034480 -1.352766 -72.607117 92 84 67
5.795804 -1.307780 -70.192627 96 89 70
5.572490 -1.265691 -67.933556 95 89 70
5.363103 -1.226226 -65.815361 97 91 72
5.177561 -1.191722 -63.963409 90 83 68
2.481381 -0.708591 -38.032299 38 23 20
2.411139 -0.694295 -37.264938 43 22 20
2.343675 -0.680563 -36.527931 51 26 24
2.278828 -0.667364 -35.819511 48 23 19
-0.546684 -0.476276 -25.563232 98 90 73
-0.562471 -0.477930 -25.651993 103 93 76
-0.576861 -0.478345 -25.674280 102 92 75
-0.590762 -0.478345 -25.674280 104 93 79
-0.604138 -0.477930 -25.651993 89 78 64
-0.618027 -0.477930 -25.651993 44 32 20
-0.635779 -0.480852 -25.808817 27 15 5
-1.928910 -1.029113 -55.235691 35 33 23
-1.958816 -1.029113 -55.235691 82 80 69
-1.988723 -1.029113 -55.235691 100 97 83
-2.018630 -1.029113 -55.235691 87 84 70
-2.048536 -1.029113 -55.235691 30 25 16
-2.086242 -1.032975 -55.442955 30 27 19
-2.497744 -1.202130 -64.522041 27 23 18
-2.543787 -1.207403 -64.805031 24 21 13
-2.584543 -1.210056 -64.947464 18 16 6
-2.613962 -1.207403 -64.805031 16 13 5
-1.750291 -0.739028 -39.665901 32 28 23
-1.774149 -0.740021 -39.719215 14 11 6
-2.701431 -1.027193 -55.132641 8 6 5
-2.701046 -1.015822 -54.522316 7 4 0
183.502075 -35.410973 -1846.943481 87 78 65
182.502075 -35.410973 -1846.943481 93 85 72
181.502075 -35.410973 -1846.943481 95 86 73
180.502075 -35.410973 -1846.943481 96 87 74
179.502075 -35.410973 -1846.943481 93 84 70
178.502075 -35.410973 -1846.943481 93 86 71
11.652318 -2.463372 -128.483032 93 84 70
11.735829 -2.495928 -130.181046 97 90 75
11.769036 -2.518114 -131.338196 96 89 74
11.594860 -2.495928 -130.181046 92 85 70
11.276005 -2.442136 -127.375412 93 86 71
10.484005 -2.284579 -119.157646 95 88 71
6.860365 -1.552262 -80.961906 95 86 73
6.617110 -1.506850 -78.593338 98 89 75
6.322336 -1.449042 -75.578247 97 89 72
6.034480 -1.392078 -72.607117 95 87 70
5.795804 -1.345785 -70.192627 97 89 72
5.546987 -1.296512 -67.622643 93 87 68
5.327507 -1.253486 -65.378532 93 87 68
5.122127 -1.213224 -63.278576 96 87 73
4.929530 -1.175468 -61.309326 96 87 74
4.739023 -1.137702 -59.339550 98 88 78
4.560376 -1.102287 -57.492405 89 78 70
4.392516 -1.069010 -55.756783 48 35 27
2.478192 -0.728246 -37.983414 43 22 20
2.408102 -0.713571 -37.218006 42 17 15
2.340782 -0.699476 -36.482834 53 25 24
-0.546684 -0.490117 -25.563232 100 93 76
-0.561010 -0.490542 -25.585363 100 92 75
-0.575860 -0.491392 -25.629745 103 93 76
-0.589737 -0.491392 -25.629745 107 96 82
-0.603614 -0.491392 -25.629745 86 75 61
-0.618564 -0.492246 -25.674280 42 33 20
-0.635224 -0.494394 -25.786297 34 24 14
-0.650890 -0.495692 -25.853977 26 13 5
-1.955162 -1.057044 -55.132641 97 93 82
-1.985013 -1.057044 -55.132641 96 93 79
-2.014863 -1.057044 -55.132641 69 66 52
-2.052372 -1.061003 -55.339130 30 28 18
-2.098051 -1.069010 -55.756783 23 20 12
-2.460144 -1.218442 -63.550743 22 19 14
-2.527161 -1.234369 -64.381470 20 18 8
-2.567613 -1.237065 -64.522041 13 11 0
-2.596878 -1.234369 -64.381470 17 15 5
-1.771767 -0.760504 -39.665901 11 9 1
182.502075 -36.410973 -1846.943481 90 82 69
181.502075 -36.410973 -1846.943481 92 83 70
180.502075 -36.410973 -1846.943481 96 87 74
179.502075 -36.410973 -1846.943481 94 85 71
178.502075 -36.410973 -1846.943481 90 83 68
11.858554 -2.577768 -130.757065 91 83 66
11.893005 -2.600784 -131.924530 93 86 71
11.769036 -2.589225 -131.338196 95 88 73
11.493595 -2.543998 -129.044083 94 87 72
11.179629 -2.489639 -126.286736 95 88 71
10.441900 -2.339661 -118.679100 98 91 74
6.866576 -1.587399 -80.520699 97 88 75
6.677422 -1.553535 -78.802925 100 91 78
6.617110 -1.549403 -78.593338 94 85 72
6.338547 -1.493783 -75.772041 94 85 71
6.049343 -1.434915 -72.785950 97 88 74
5.782069 -1.380511 -70.026291 95 87 70
5.521716 -1.327051 -67.314568 97 91 72
5.292381 -1.280386 -64.947464 98 92 73
5.089432 -1.239522 -62.874672 98 89 75
4.888957 -1.198715 -60.804722 96 87 73
4.710645 -1.162825 -58.984222 100 91 78
4.533913 -1.126839 -57.158791 97 87 77
4.376002 -1.095067 -55.547173 76 63 55
4.211354 -1.061158 -53.827133 66 53 45
2.496282 -0.730045 -37.031448 99 87 75
2.476232 -0.730045 -37.031448 88 73 64
2.459264 -0.730961 -37.077911 55 36 29
2.437463 -0.736505 -37.359161 42 14 13
2.381112 -0.725499 -36.800865 51 21 20
2.315059 -0.711325 -36.081924 49 19 18
2.251537 -0.697695 -35.390533 46 16 15
1.287044 -0.749775 -38.032299 95 92 78
1.263201 -0.747851 -37.934654 97 91 80
1.241068 -0.746892 -37.886021 99 89 79
1.220555 -0.746892 -37.886021 74 58 51
-13.248960 -18.205486 -923.471741 99 89 79
-27.497921 -36.410973 -1846.943481 100 90 80
-11.399168 -14.564389 -738.777405 100 91 78
-8.427978 -10.403135 -527.698120 104 95 82
-6.777316 -8.091328 -410.431885 99 92 77
-5.726895 -6.620177 -335.807892 99 92 77
-4.999680 -5.601688 -284.145142 102 98 80
-4.466390 -4.854796 -246.259125 98 94 76
-4.058579 -4.283644 -217.287476 94 90 72
-3.736623 -3.832734 -194.415100 95 93 75
-3.475992 -3.467712 -175.899384 98 94 76
-3.260689 -3.166172 -160.603775 97 93 75
-3.079834 -2.912878 -147.755478 98 94 76
-0.546212 -0.503523 -25.541138 96 92 74
-0.560525 -0.503958 -25.563232 102 95 76
-0.575361 -0.504831 -25.607534 99 89 72
-0.590249 -0.505708 -25.651993 105 94 80
-0.604138 -0.505708 -25.651993 89 80 67
-0.619102 -0.506587 -25.696606 45 35 25
-1.849403 -1.044042 -52.958954 96 91 82
-1.922875 -1.068946 -54.222195 97 93 82
-1.999938 -1.078844 -54.724251 48 44 33
-2.048536 -1.088926 -55.235691 36 34 24
-2.094100 -1.097129 -55.651779 25 22 14
-2.492302 -1.269228 -64.381470 21 18 13
-2.538221 -1.274782 -64.663231 21 19 9
-2.578875 -1.277578 -64.805031 21 19 8
-2.608243 -1.274782 -64.663231 24 22 12
-3.476957 -0.705297 -35.776146 102 91 77
-3.475291 -0.701054 -35.560886 102 93 79
182.502075 -37.410973 -1846.943481 87 79 66
181.502075 -37.410973 -1846.943481 92 83 70
180.502075 -37.410973 -1846.943481 94 85 72
179.502075 -37.410973 -1846.943481 94 85 71
11.911259 -2.660336 -131.338196 95 85 68
11.840148 -2.660336 -131.338196 93 85 68
11.665344 -2.636897 -130.181046 95 88 71
11.443623 -2.602502 -128.483032 96 89 72
11.132056 -2.547130 -125.749344 94 87 70
10.441900 -2.403918 -118.679100 96 89 72
6.702216 -1.591956 -78.593338 97 88 78
6.659663 -1.591956 -78.593338 96 88 75
6.617110 -1.591956 -78.593338 96 87 74
6.338547 -1.534809 -75.772041 95 86 72
6.034480 -1.470702 -72.607117 96 87 73
5.754795 -1.411735 -69.695984 99 91 74
5.496674 -1.357314 -67.009285 96 90 71
5.269219 -1.309793 -64.663231 98 92 73
5.067867 -1.268169 -62.608253 97 90 75
4.878918 -1.229108 -60.679867 94 87 72
4.691915 -1.190011 -58.749695 100 91 78
4.516442 -1.153325 -56.938526 100 91 78
4.351464 -1.118833 -55.235691 98 88 78
4.188466 -1.084376 -53.534595 98 88 78
4.035208 -1.051978 -51.935143 105 95 85
3.910863 -1.026716 -50.687984 100 90 80
2.506908 -0.747285 -36.892754 99 89 72
2.486933 -0.747285 -36.892754 103 90 74
2.466958 -0.747285 -36.892754 65 45 34
2.453108 -0.749156 -36.985100 47 21 14
2.445325 -0.752925 -37.171188 46 16 11
2.416082 -0.750095 -37.031448 63 30 27
2.354721 -0.737162 -36.392975 55 24 21
2.289895 -0.722917 -35.689728 45 14 11
2.227527 -0.709213 -35.013145 38 8 7
2.185267 -0.701730 -34.643723 38 8 7
1.292033 -0.773353 -38.179710 96 93 79
1.269720 -0.772356 -38.130447 100 94 83
1.249075 -0.772356 -38.130447 101 91 81
1.228430 -0.772356 -38.130447 82 64 57
-11.458560 -16.177717 -798.678284 104 92 82
-8.301259 -11.293879 -557.567871 102 90 78
-6.608213 -8.675008 -428.276764 105 93 81
-5.552550 -7.042066 -347.659943 106 97 84
-4.831354 -5.926491 -292.585114 102 95 80
-4.307408 -5.116030 -252.573471 104 97 82
-3.909524 -4.500568 -222.188690 100 95 80
-3.597092 -4.017286 -198.329498 96 93 78
-3.345253 -3.627731 -179.097549 93 91 73
-3.137938 -3.307047 -163.265717 94 94 76
