ply
format ascii 1.0
element vertex 1218
property float x
property float y
property float z
property uchar red
property uchar green
property uchar blue
end_header
-2.035665 1.180691 -44.018353 31 19 16
-2.059474 1.180691 -44.018353 29 18 14
-2.083284 1.180691 -44.018353 25 16 12
-2.107093 1.180691 -44.018353 23 14 10
-2.130903 1.180691 -44.018353 21 14 9
-2.154712 1.180691 -44.018353 17 12 7
-2.178522 1.180691 -44.018353 17 12 9
-2.202332 1.180691 -44.018353 17 12 9
-2.226141 1.180691 -44.018353 16 9 8
-2.249951 1.180691 -44.018353 17 9 9
-2.273760 1.180691 -44.018353 21 12 12
-2.297570 1.180691 -44.018353 24 15 15
-2.321379 1.180691 -44.018353 20 14 12
-2.345189 1.180691 -44.018353 15 10 7
-2.368998 1.180691 -44.018353 12 7 4
-2.392808 1.180691 -44.018353 12 7 4
-2.416617 1.180691 -44.018353 12 7 6
-2.440427 1.180691 -44.018353 12 7 6
-2.464236 1.180691 -44.018353 12 7 6
-2.488046 1.180691 -44.018353 15 10 9
-2.511855 1.180691 -44.018353 16 11 10
-2.535665 1.180691 -44.018353 20 15 14
-9.607496 3.796289 -141.532684 40 23 16
-9.825082 3.851575 -143.593842 39 21 14
-9.951057 3.870363 -144.294296 46 27 20
-10.029106 3.870363 -144.294296 51 32 25
-10.156700 3.889335 -145.001633 44 25 21
-10.235131 3.889335 -145.001633 34 16 13
-10.263252 3.870363 -144.294296 33 17 15
-10.391994 3.889335 -145.001633 31 18 16
-10.470426 3.889335 -145.001633 24 14 13
-10.600821 3.908495 -145.715927 21 12 12
-10.679640 3.908495 -145.715927 17 11 10
-10.705720 3.889335 -145.001633 12 7 6
-10.731545 3.870363 -144.294296 9 4 3
-5.807462 1.659884 -61.883541 36 24 14
-5.816597 1.652968 -61.625690 53 41 31
-5.886723 1.663364 -62.013275 53 39 28
-5.846722 1.642701 -61.242924 52 38 28
-5.819604 1.625870 -60.615433 46 30 22
-5.711934 1.586849 -59.160664 41 23 17
-9.383543 2.495045 -93.019913 56 38 27
-9.404284 2.487224 -92.728317 53 36 24
-9.251431 2.433817 -90.737213 78 64 50
-9.160021 2.397053 -89.366562 105 92 78
-9.017653 2.347409 -87.515778 113 101 87
-5.535665 1.180691 -44.018353 108 100 83
-5.559474 1.180691 -44.018353 113 104 90
-5.583284 1.180691 -44.018353 113 104 90
-5.607093 1.180691 -44.018353 111 102 89
-5.630903 1.180691 -44.018353 109 101 88
-5.654713 1.180691 -44.018353 110 102 89
-5.678522 1.180691 -44.018353 111 104 89
-5.702332 1.180691 -44.018353 108 102 87
-27.499811 4.508093 -168.070068 111 102 88
-27.590721 4.508093 -168.070068 111 102 88
-27.681629 4.508093 -168.070068 107 98 84
-27.772539 4.508093 -168.070068 106 97 83
-27.863447 4.508093 -168.070068 108 99 85
-27.954357 4.508093 -168.070068 107 98 84
-28.408903 4.508093 -168.070068 106 97 84
-28.499811 4.508093 -168.070068 107 98 84
-28.590721 4.508093 -168.070068 108 99 85
-28.681629 4.508093 -168.070068 107 100 85
-28.772539 4.508093 -168.070068 107 100 85
-28.863447 4.508093 -168.070068 108 101 84
-28.954357 4.508093 -168.070068 109 102 85
-29.045265 4.508093 -168.070068 110 103 86
-29.317993 4.508093 -168.070068 106 102 84
-29.408903 4.508093 -168.070068 101 97 79
-29.499811 4.508093 -168.070068 101 97 79
-29.590721 4.508093 -168.070068 104 100 82
-29.681629 4.508093 -168.070068 105 101 83
-29.772539 4.508093 -168.070068 107 100 83
-29.863447 4.508093 -168.070068 105 98 81
-30.499811 4.508093 -168.070068 105 100 85
7.940526 1.156882 -44.018353 88 80 67
7.916716 1.156882 -44.018353 93 84 70
7.892907 1.156882 -44.018353 94 86 69
7.869097 1.156882 -44.018353 95 88 69
7.845287 1.156882 -44.018353 95 90 69
7.821478 1.156882 -44.018353 94 88 69
7.797668 1.156882 -44.018353 93 88 73
7.773859 1.156882 -44.018353 91 86 71
7.750050 1.156882 -44.018353 91 86 71
7.726240 1.156882 -44.018353 94 89 74
7.702430 1.156882 -44.018353 93 86 69
5.488145 1.156882 -44.018353 62 47 39
5.464335 1.156882 -44.018353 54 38 31
5.440526 1.156882 -44.018353 57 41 34
5.416716 1.156882 -44.018353 53 37 30
5.392907 1.156882 -44.018353 43 28 21
5.369097 1.156882 -44.018353 38 24 19
5.345287 1.156882 -44.018353 30 17 16
5.321478 1.156882 -44.018353 24 11 13
20.136553 4.417184 -168.070068 24 14 14
20.045643 4.417184 -168.070068 18 8 8
19.954735 4.417184 -168.070068 20 8 8
19.863825 4.417184 -168.070068 19 6 7
19.772917 4.417184 -168.070068 23 9 11
19.682007 4.417184 -168.070068 27 14 16
19.591097 4.417184 -168.070068 25 12 14
19.500189 4.417184 -168.070068 23 10 12
19.409279 4.417184 -168.070068 17 6 8
19.318371 4.417184 -168.070068 13 2 4
19.227461 4.417184 -168.070068 17 5 7
19.136553 4.417184 -168.070068 19 6 8
6.411426 1.837883 -69.929863 35 14 13
6.155327 1.774942 -67.535004 32 12 12
5.903157 1.712389 -65.154915 29 11 12
5.668156 1.654095 -62.936878 29 12 13
5.448628 1.599639 -60.864880 27 10 13
5.243094 1.548654 -58.924965 25 8 9
5.060026 1.503722 -57.215343 28 10 11
4.878111 1.458582 -55.497810 29 10 12
4.715389 1.418658 -53.978706 31 10 11
4.561338 1.380860 -52.540554 33 13 12
8.591098 4.417184 -168.070068 89 19 16
8.500189 4.417184 -168.070068 93 22 19
8.409280 4.417184 -168.070068 94 23 20
8.318371 4.417184 -168.070068 92 21 17
8.227462 4.417184 -168.070068 90 19 15
8.136552 4.417184 -168.070068 88 18 12
8.045643 4.417184 -168.070068 87 17 10
7.954734 4.417184 -168.070068 87 18 10
7.863825 4.417184 -168.070068 88 21 12
7.772916 4.417184 -168.070068 89 22 13
7.682007 4.417184 -168.070068 88 22 13
7.591098 4.417184 -168.070068 86 21 12
7.500189 4.417184 -168.070068 86 21 12
7.318370 4.417184 -168.070068 86 20 13
7.227461 4.417184 -168.070068 84 19 14
7.136552 4.417184 -168.070068 83 20 15
7.045643 4.417184 -168.070068 83 22 16
6.954734 4.417184 -168.070068 81 21 15
6.863825 4.417184 -168.070068 82 22 16
6.772916 4.417184 -168.070068 82 22 16
6.682007 4.417184 -168.070068 83 23 17
6.591098 4.417184 -168.070068 81 21 16
6.500189 4.417184 -168.070068 81 22 17
6.064694 4.179701 -159.034042 82 23 20
5.946702 4.157350 -158.183594 81 22 20
5.829964 4.135236 -157.342194 82 22 21
5.625173 4.049086 -154.064224 83 21 21
5.541840 4.049086 -154.064224 83 21 20
5.487085 4.070285 -154.870850 82 21 19
5.375173 4.049086 -154.064224 83 22 19
5.291840 4.049086 -154.064224 81 20 16
5.076311 3.946317 -150.153976 82 20 16
-0.702331 1.156882 -44.018353 109 101 87
-0.726141 1.156882 -44.018353 108 99 85
-0.749951 1.156882 -44.018353 110 101 87
-0.773760 1.156882 -44.018353 112 103 89
-0.797570 1.156882 -44.018353 113 105 89
-0.821379 1.156882 -44.018353 113 105 88
-0.845189 1.156882 -44.018353 111 103 86
-0.868998 1.156882 -44.018353 109 103 85
-0.892808 1.156882 -44.018353 107 101 82
-0.916617 1.156882 -44.018353 105 100 81
-0.940427 1.156882 -44.018353 106 101 82
-0.964236 1.156882 -44.018353 108 102 83
-1.892808 1.156882 -44.018353 32 19 18
-1.916617 1.156882 -44.018353 33 19 20
-1.940427 1.156882 -44.018353 36 23 22
-1.964236 1.156882 -44.018353 35 23 21
-1.988046 1.156882 -44.018353 34 22 20
-2.011855 1.156882 -44.018353 33 22 19
-2.035665 1.156882 -44.018353 32 21 17
-2.059474 1.156882 -44.018353 31 20 16
-2.083284 1.156882 -44.018353 28 18 14
-2.107093 1.156882 -44.018353 23 16 12
-2.130903 1.156882 -44.018353 19 14 9
-2.154712 1.156882 -44.018353 15 11 6
-2.178522 1.156882 -44.018353 17 12 8
-2.202332 1.156882 -44.018353 18 13 10
-2.226141 1.156882 -44.018353 16 10 7
-2.249951 1.156882 -44.018353 16 9 6
-2.273760 1.156882 -44.018353 20 11 10
-2.297570 1.156882 -44.018353 23 15 13
-2.321379 1.156882 -44.018353 21 15 12
-2.345189 1.156882 -44.018353 18 13 10
-2.368998 1.156882 -44.018353 18 13 10
-2.392808 1.156882 -44.018353 19 14 11
-2.416617 1.156882 -44.018353 16 11 9
-2.440427 1.156882 -44.018353 12 7 6
-2.464236 1.156882 -44.018353 13 8 7
-2.488046 1.156882 -44.018353 9 4 3
-2.511855 1.156882 -44.018353 10 5 4
-2.535665 1.156882 -44.018353 15 10 9
-9.607496 3.719734 -141.532684 44 28 22
-9.873009 3.792314 -144.294296 36 19 12
-9.951057 3.792314 -144.294296 45 27 20
-10.078269 3.810904 -145.001633 55 37 31
-10.206733 3.829677 -145.715927 44 27 21
-10.285551 3.829677 -145.715927 34 19 15
-10.364368 3.829677 -145.715927 37 22 20
-10.443186 3.829677 -145.715927 33 21 19
-10.574093 3.848636 -146.437286 22 11 11
-10.653301 3.848636 -146.437286 15 9 8
-10.732509 3.848636 -146.437286 11 6 5
-10.811717 3.848636 -146.437286 12 7 6
-10.837275 3.829677 -145.715927 11 7 6
-11.159834 3.887122 -147.901657 20 13 11
-11.239834 3.887122 -147.901657 22 14 11
-5.899090 1.633245 -62.143555 53 39 28
-5.858852 1.612914 -61.369984 55 40 30
-5.819604 1.593083 -60.615433 45 28 21
-5.734873 1.561093 -59.398258 40 20 15
-9.442933 2.460204 -93.608643 52 35 24
-9.404284 2.437067 -92.728317 61 48 34
-9.279898 2.392075 -91.016403 94 82 68
-9.187778 2.355832 -89.637367 109 98 84
-9.071330 2.313763 -88.036705 106 97 83
-5.535665 1.156882 -44.018353 107 99 82
-5.559474 1.156882 -44.018353 107 98 84
-5.583284 1.156882 -44.018353 108 99 85
-5.607093 1.156882 -44.018353 109 101 87
-5.630903 1.156882 -44.018353 109 102 87
-5.654713 1.156882 -44.018353 111 104 89
-5.678522 1.156882 -44.018353 112 105 88
-5.702332 1.156882 -44.018353 110 106 88
-27.499811 4.417184 -168.070068 110 101 87
-27.590721 4.417184 -168.070068 110 101 87
-27.681629 4.417184 -168.070068 109 100 86
-27.772539 4.417184 -168.070068 109 100 86
-27.863447 4.417184 -168.070068 111 102 88
-27.954357 4.417184 -168.070068 110 101 87
-28.317993 4.417184 -168.070068 107 98 85
-28.408903 4.417184 -168.070068 109 100 87
-28.499811 4.417184 -168.070068 108 99 85
-28.590721 4.417184 -168.070068 108 99 85
-28.681629 4.417184 -168.070068 107 100 85
-29.317993 4.417184 -168.070068 106 102 84
-29.408903 4.417184 -168.070068 104 100 82
-29.590721 4.417184 -168.070068 104 100 82
-29.681629 4.417184 -168.070068 103 99 81
-29.772539 4.417184 -168.070068 107 100 83
7.964335 1.133072 -44.018353 90 85 70
7.940526 1.133072 -44.018353 91 84 69
7.916716 1.133072 -44.018353 96 88 71
7.892907 1.133072 -44.018353 96 89 70
7.869097 1.133072 -44.018353 95 88 68
7.845287 1.133072 -44.018353 94 88 69
7.821478 1.133072 -44.018353 94 88 69
7.797668 1.133072 -44.018353 94 89 74
7.773859 1.133072 -44.018353 93 87 74
7.750050 1.133072 -44.018353 96 88 75
7.726240 1.133072 -44.018353 100 93 77
7.702430 1.133072 -44.018353 95 88 71
15.777909 3.021526 -117.382271 33 15 14
14.500122 2.799355 -108.751221 34 13 12
5.511954 1.133072 -44.018353 46 31 22
5.488145 1.133072 -44.018353 51 35 28
5.464335 1.133072 -44.018353 56 40 34
5.440526 1.133072 -44.018353 63 47 40
5.416716 1.133072 -44.018353 64 48 41
5.392907 1.133072 -44.018353 61 46 39
5.369097 1.133072 -44.018353 60 47 41
5.345287 1.133072 -44.018353 55 43 40
5.321478 1.133072 -44.018353 54 42 43
20.136553 4.326275 -168.070068 37 28 28
20.045643 4.326275 -168.070068 27 19 19
19.954735 4.326275 -168.070068 25 15 15
19.863825 4.326275 -168.070068 20 10 10
19.772917 4.326275 -168.070068 21 9 9
19.682007 4.326275 -168.070068 19 7 8
19.591097 4.326275 -168.070068 22 9 11
19.500189 4.326275 -168.070068 24 12 14
19.409279 4.326275 -168.070068 20 9 11
19.318371 4.326275 -168.070068 14 3 5
19.227461 4.326275 -168.070068 19 6 8
19.136553 4.326275 -168.070068 23 10 12
17.829964 4.050130 -157.342194 27 13 14
6.441884 1.808609 -70.262070 34 14 13
6.212058 1.754434 -68.157448 30 12 12
5.995600 1.703410 -66.175240 29 12 13
5.753851 1.644545 -63.888405 28 12 13
5.528253 1.589613 -61.754345 26 10 11
5.328002 1.541345 -59.879215 27 11 12
5.149672 1.498867 -58.229000 30 12 12
4.990467 1.461467 -56.776070 30 11 10
8.682007 4.326275 -168.070068 86 20 15
8.591098 4.326275 -168.070068 87 18 14
8.500189 4.326275 -168.070068 87 18 15
8.409280 4.326275 -168.070068 88 19 16
8.318371 4.326275 -168.070068 88 19 16
8.227462 4.326275 -168.070068 88 20 15
8.136552 4.326275 -168.070068 87 19 13
8.045643 4.326275 -168.070068 86 18 11
7.954734 4.326275 -168.070068 86 19 12
7.863825 4.326275 -168.070068 85 20 11
7.772916 4.326275 -168.070068 84 19 10
7.682007 4.326275 -168.070068 87 22 13
7.591098 4.326275 -168.070068 88 23 14
7.500189 4.326275 -168.070068 86 21 12
7.409279 4.326275 -168.070068 85 20 11
7.318370 4.326275 -168.070068 84 19 10
7.227461 4.326275 -168.070068 83 19 11
7.136552 4.326275 -168.070068 83 21 13
7.045643 4.326275 -168.070068 85 23 17
6.954734 4.326275 -168.070068 85 23 17
6.863825 4.326275 -168.070068 85 23 15
6.772916 4.326275 -168.070068 84 22 14
6.682007 4.326275 -168.070068 82 21 13
6.591098 4.326275 -168.070068 79 19 12
6.500189 4.326275 -168.070068 78 18 13
6.097477 4.115808 -159.893692 81 20 17
5.946702 4.071788 -158.183594 83 22 20
5.829964 4.050130 -157.342194 84 22 20
5.567182 3.924868 -152.475937 85 21 20
5.428741 3.884819 -150.920059 85 21 20
5.402233 3.924868 -152.475937 84 20 19
5.319759 3.924868 -152.475937 85 21 19
5.264421 3.945204 -153.265976 83 20 16
5.050673 3.845578 -149.395615 84 20 16
4.895688 3.788181 -147.165833 85 21 17
-0.678522 1.133072 -44.018353 110 101 87
-0.702331 1.133072 -44.018353 109 100 86
-0.726141 1.133072 -44.018353 109 100 86
-0.749951 1.133072 -44.018353 111 101 87
-0.773760 1.133072 -44.018353 112 101 87
-0.797570 1.133072 -44.018353 112 102 88
-0.821379 1.133072 -44.018353 111 103 87
-0.845189 1.133072 -44.018353 112 104 87
-0.868998 1.133072 -44.018353 111 103 86
-0.892808 1.133072 -44.018353 108 101 84
-0.916617 1.133072 -44.018353 107 100 83
-0.940427 1.133072 -44.018353 108 101 84
-0.964236 1.133072 -44.018353 108 101 84
-1.915613 1.146724 -44.548695 34 19 16
-1.988046 1.133072 -44.018353 35 23 19
-2.011855 1.133072 -44.018353 34 22 18
-2.035665 1.133072 -44.018353 34 22 18
-2.059474 1.133072 -44.018353 34 24 18
-2.083284 1.133072 -44.018353 28 20 13
-2.107093 1.133072 -44.018353 22 15 8
-2.130903 1.133072 -44.018353 17 13 5
-2.154712 1.133072 -44.018353 14 11 3
-2.178522 1.133072 -44.018353 16 13 6
-2.202332 1.133072 -44.018353 16 13 8
-2.226141 1.133072 -44.018353 12 9 4
-2.249951 1.133072 -44.018353 12 8 3
-2.273760 1.133072 -44.018353 17 11 7
-2.297570 1.133072 -44.018353 21 15 10
-2.321379 1.133072 -44.018353 20 15 10
-2.345189 1.133072 -44.018353 21 17 12
-2.368998 1.133072 -44.018353 23 19 14
-2.392808 1.133072 -44.018353 20 16 11
-2.416617 1.133072 -44.018353 15 12 8
-2.440427 1.133072 -44.018353 18 15 11
-2.464236 1.133072 -44.018353 34 30 28
-2.488046 1.133072 -44.018353 31 27 26
-2.511855 1.133072 -44.018353 16 11 12
-2.535665 1.133072 -44.018353 14 9 10
-2.559474 1.133072 -44.018353 19 14 14
-9.825082 3.696235 -143.593842 39 24 17
-9.951057 3.714266 -144.294296 38 22 16
-10.029106 3.714266 -144.294296 43 27 21
-10.156700 3.732473 -145.001633 46 30 24
-10.387895 3.788181 -147.165833 52 38 32
-10.415677 3.769428 -146.437286 63 48 44
-10.547098 3.788181 -147.165833 50 38 34
-10.626700 3.788181 -147.165833 36 26 23
-10.706303 3.788181 -147.165833 20 14 11
-10.785905 3.788181 -147.165833 11 6 4
-10.865506 3.788181 -147.165833 13 9 8
-10.890924 3.769428 -146.437286 19 15 14
-11.079834 3.807122 -147.901657 15 11 10
-11.329781 3.865099 -150.153976 18 15 11
-11.587458 3.924868 -152.475937 22 18 14
-5.899090 1.599631 -62.143555 60 45 36
-5.858852 1.579719 -61.369984 58 42 33
-5.819604 1.560296 -60.615433 47 29 21
-5.723381 1.525901 -59.279224 43 21 15
-9.433858 2.394417 -93.019913 76 62 48
-9.279898 2.342844 -91.016403 102 91 77
-9.215705 2.314360 -89.909821 110 99 85
-5.535665 1.133072 -44.018353 108 101 82
-5.559474 1.133072 -44.018353 109 101 84
-5.583284 1.133072 -44.018353 109 101 84
-5.678522 1.133072 -44.018353 113 106 89
-5.702332 1.133072 -44.018353 111 106 88
-27.499811 4.326275 -168.070068 108 99 85
-27.590721 4.326275 -168.070068 106 97 83
-27.681629 4.326275 -168.070068 107 98 84
-27.772539 4.326275 -168.070068 109 100 86
-27.863447 4.326275 -168.070068 111 102 88
-27.954357 4.326275 -168.070068 110 101 87
-28.408903 4.326275 -168.070068 108 99 85
-28.499811 4.326275 -168.070068 107 98 84
-28.590721 4.326275 -168.070068 107 98 84
-28.681629 4.326275 -168.070068 106 99 82
-29.317993 4.326275 -168.070068 110 104 85
-29.590721 4.326275 -168.070068 105 98 81
-29.681629 4.326275 -168.070068 105 98 81
7.988145 1.109263 -44.018353 89 84 69
7.964335 1.109263 -44.018353 89 83 68
7.940526 1.109263 -44.018353 95 86 72
7.916716 1.109263 -44.018353 94 86 69
7.892907 1.109263 -44.018353 95 88 69
7.869097 1.109263 -44.018353 95 90 69
7.845287 1.109263 -44.018353 94 88 69
7.821478 1.109263 -44.018353 92 85 68
7.797668 1.109263 -44.018353 91 86 71
7.773859 1.109263 -44.018353 95 89 76
7.750050 1.109263 -44.018353 96 88 75
7.726240 1.109263 -44.018353 100 93 77
7.702430 1.109263 -44.018353 96 89 72
7.678621 1.109263 -44.018353 93 87 68
16.294014 3.042549 -120.736046 30 12 11
15.904133 2.981698 -118.321327 31 12 11
15.230897 2.867017 -113.770508 34 14 13
14.771660 2.791852 -110.787758 36 16 15
5.535764 1.109263 -44.018353 39 27 15
5.511954 1.109263 -44.018353 44 30 21
5.488145 1.109263 -44.018353 41 28 20
5.464335 1.109263 -44.018353 42 26 20
5.440526 1.109263 -44.018353 43 27 21
5.416716 1.109263 -44.018353 44 28 21
5.392907 1.109263 -44.018353 45 32 24
5.369097 1.109263 -44.018353 50 38 33
5.345287 1.109263 -44.018353 49 38 35
5.321478 1.109263 -44.018353 60 49 49
20.136553 4.235366 -168.070068 50 42 42
20.045643 4.235366 -168.070068 43 35 35
19.954735 4.235366 -168.070068 46 36 36
19.863825 4.235366 -168.070068 42 32 32
19.772917 4.235366 -168.070068 45 35 35
19.682007 4.235366 -168.070068 32 22 22
19.591097 4.235366 -168.070068 32 20 22
19.500189 4.235366 -168.070068 28 17 19
19.409279 4.235366 -168.070068 21 10 12
19.318371 4.235366 -168.070068 17 5 7
19.227461 4.235366 -168.070068 21 8 9
18.205585 4.029321 -159.893692 25 13 13
6.582605 1.809283 -71.796921 29 11 10
6.328716 1.749823 -69.437401 27 10 9
6.118797 1.701882 -67.535004 26 10 11
5.867915 1.641904 -65.154915 26 10 11
5.634113 1.586010 -62.936878 23 7 8
5.438085 1.540133 -61.116390 27 11 11
5.274261 1.502872 -59.637768 31 13 12
5.128271 1.470265 -58.343849 32 11 10
4.950255 1.428016 -56.667301 32 11 10
8.682007 4.235366 -168.070068 88 22 15
8.591098 4.235366 -168.070068 86 19 15
8.500189 4.235366 -168.070068 84 17 15
8.409280 4.235366 -168.070068 86 18 17
8.318371 4.235366 -168.070068 86 17 16
8.227462 4.235366 -168.070068 85 17 14
8.136552 4.235366 -168.070068 86 18 15
8.045643 4.235366 -168.070068 85 19 13
7.954734 4.235366 -168.070068 86 21 13
7.863825 4.235366 -168.070068 86 21 13
7.772916 4.235366 -168.070068 85 20 11
7.682007 4.235366 -168.070068 88 23 14
7.591098 4.235366 -168.070068 89 24 15
7.500189 4.235366 -168.070068 87 22 13
7.409279 4.235366 -168.070068 85 20 11
7.318370 4.235366 -168.070068 84 19 10
7.227461 4.235366 -168.070068 84 19 11
7.136552 4.235366 -168.070068 82 20 12
7.045643 4.235366 -168.070068 83 21 15
6.954734 4.235366 -168.070068 86 24 18
6.863825 4.235366 -168.070068 85 23 15
6.772916 4.235366 -168.070068 82 20 12
6.682007 4.235366 -168.070068 82 20 12
6.591098 4.235366 -168.070068 82 21 14
6.500189 4.235366 -168.070068 79 19 13
6.409279 4.235366 -168.070068 79 18 13
6.010990 4.029321 -159.893692 82 18 16
5.861140 3.986227 -158.183594 83 19 18
5.654624 3.902746 -154.870850 83 19 18
5.513125 3.862303 -153.265976 83 19 18
5.487085 3.902746 -154.870850 83 19 18
5.403315 3.902746 -154.870850 84 20 17
5.291840 3.882419 -154.064224 83 19 15
5.076311 3.783880 -150.153976 83 19 15
-0.678522 1.109263 -44.018353 110 101 87
-0.702331 1.109263 -44.018353 108 99 85
-0.726141 1.109263 -44.018353 107 98 84
-0.749951 1.109263 -44.018353 110 100 86
-0.773760 1.109263 -44.018353 114 103 89
-0.797570 1.109263 -44.018353 115 104 90
-0.821379 1.109263 -44.018353 113 103 89
-0.845189 1.109263 -44.018353 112 104 88
-0.868998 1.109263 -44.018353 111 103 86
-0.892808 1.109263 -44.018353 108 100 83
-0.916617 1.109263 -44.018353 107 100 83
-0.940427 1.109263 -44.018353 109 102 85
-0.964236 1.109263 -44.018353 109 102 85
-2.011855 1.109263 -44.018353 34 22 18
-2.035665 1.109263 -44.018353 33 22 16
-2.059474 1.109263 -44.018353 32 24 17
-2.202332 1.109263 -44.018353 15 12 7
-2.226141 1.109263 -44.018353 11 8 3
-2.249951 1.109263 -44.018353 13 9 4
-2.273760 1.109263 -44.018353 18 13 8
-2.297570 1.109263 -44.018353 21 15 10
-2.321379 1.109263 -44.018353 22 17 12
-2.345189 1.109263 -44.018353 19 15 10
-2.368998 1.109263 -44.018353 18 14 9
-2.392808 1.109263 -44.018353 16 13 8
-2.416617 1.109263 -44.018353 14 11 7
-2.440427 1.109263 -44.018353 17 14 10
-2.464236 1.109263 -44.018353 36 33 30
-2.488046 1.109263 -44.018353 41 37 36
-2.511855 1.109263 -44.018353 22 17 17
-2.535665 1.109263 -44.018353 18 13 14
-2.559474 1.109263 -44.018353 16 12 12
-2.583284 1.109263 -44.018353 21 17 16
-9.653687 3.583771 -142.213135 44 32 24
-9.873009 3.636217 -144.294296 45 32 24
-9.999837 3.654041 -145.001633 46 31 25
-10.078269 3.654041 -145.001633 52 36 30
-10.206733 3.672042 -145.715927 63 47 41
-10.387895 3.708579 -147.165833 78 62 56
-10.519834 3.727122 -147.901657 86 72 66
-10.599834 3.727122 -147.901657 63 50 45
-10.679834 3.727122 -147.901657 49 39 35
-10.759834 3.727122 -147.901657 31 24 21
-10.839834 3.727122 -147.901657 18 12 9
-10.919834 3.727122 -147.901657 15 11 9
-11.363933 3.822690 -151.694016 11 9 8
-11.747193 3.923286 -155.685959 19 18 15
-12.085843 4.007658 -159.034042 22 20 16
-5.834642 1.540133 -61.116390 54 39 30
-5.795851 1.521274 -60.368023 45 27 19
-5.700532 1.487873 -59.042580 42 21 15
-9.337358 2.307816 -91.579979 108 97 83
-5.535665 1.109263 -44.018353 110 103 84
-5.559474 1.109263 -44.018353 113 106 88
-5.583284 1.109263 -44.018353 112 104 87
-5.607093 1.109263 -44.018353 109 101 86
-27.317993 4.235366 -168.070068 109 100 86
-27.408903 4.235366 -168.070068 110 101 87
-27.499811 4.235366 -168.070068 108 99 85
-27.590721 4.235366 -168.070068 104 95 81
-27.681629 4.235366 -168.070068 107 98 84
-27.772539 4.235366 -168.070068 107 98 84
-27.863447 4.235366 -168.070068 107 98 84
-27.954357 4.235366 -168.070068 106 97 83
-28.408903 4.235366 -168.070068 106 97 83
8.011954 1.085453 -44.018353 96 89 74
7.988145 1.085453 -44.018353 93 89 71
7.964335 1.085453 -44.018353 93 89 71
7.940526 1.085453 -44.018353 96 88 71
7.916716 1.085453 -44.018353 93 85 68
7.892907 1.085453 -44.018353 95 89 70
7.869097 1.085453 -44.018353 94 89 68
7.845287 1.085453 -44.018353 93 87 68
7.821478 1.085453 -44.018353 92 88 70
7.797668 1.085453 -44.018353 90 85 70
7.773859 1.085453 -44.018353 94 88 75
7.750050 1.085453 -44.018353 93 87 76
7.726240 1.085453 -44.018353 94 88 75
7.702430 1.085453 -44.018353 95 88 73
7.678621 1.085453 -44.018353 93 86 69
17.055460 3.103934 -125.873756 30 11 8
16.496004 3.014151 -122.232780 31 12 9
16.032393 2.941228 -119.275536 29 10 7
15.529542 2.860488 -116.001305 30 9 7
5.559573 1.085453 -44.018353 43 33 19
5.535764 1.085453 -44.018353 46 36 24
5.511954 1.085453 -44.018353 46 34 26
5.488145 1.085453 -44.018353 41 29 23
5.464335 1.085453 -44.018353 46 32 26
5.440526 1.085453 -44.018353 48 34 28
5.416716 1.085453 -44.018353 52 39 31
5.392907 1.085453 -44.018353 55 43 35
5.369097 1.085453 -44.018353 58 46 40
5.345287 1.085453 -44.018353 50 39 35
5.321478 1.085453 -44.018353 54 43 41
19.954735 4.144457 -168.070068 40 32 32
19.863825 4.144457 -168.070068 44 36 36
19.772917 4.144457 -168.070068 54 46 46
19.682007 4.144457 -168.070068 43 34 34
19.591097 4.144457 -168.070068 41 31 31
19.500189 4.144457 -168.070068 37 27 27
19.409279 4.144457 -168.070068 29 19 19
19.318371 4.144457 -168.070068 24 14 14
19.227461 4.144457 -168.070068 23 13 13
18.107706 3.921637 -159.034042 24 12 12
7.240193 1.924603 -78.048370 28 11 10
6.977067 1.865536 -75.653023 26 11 9
6.746351 1.814489 -73.582916 25 10 8
6.527925 1.766161 -71.623077 24 9 7
6.276424 1.708254 -69.274780 25 10 8
6.054621 1.657783 -67.228027 25 10 8
5.807090 1.599615 -64.869148 24 9 7
5.588181 1.548672 -62.803253 26 10 8
5.416218 1.510195 -61.242924 28 9 8
5.263225 1.476568 -59.879215 31 11 9
5.066732 1.430244 -58.000652 34 12 10
8.772916 4.144457 -168.070068 87 22 13
8.682007 4.144457 -168.070068 88 23 14
8.591098 4.144457 -168.070068 88 22 17
8.500189 4.144457 -168.070068 86 20 19
8.409280 4.144457 -168.070068 85 19 18
8.318371 4.144457 -168.070068 84 18 16
8.227462 4.144457 -168.070068 84 19 15
8.136552 4.144457 -168.070068 84 19 15
8.045643 4.144457 -168.070068 82 18 12
7.772916 4.144457 -168.070068 83 21 11
7.682007 4.144457 -168.070068 85 23 13
7.591098 4.144457 -168.070068 86 24 14
7.500189 4.144457 -168.070068 85 23 13
7.409279 4.144457 -168.070068 84 22 12
7.318370 4.144457 -168.070068 83 21 11
7.227461 4.144457 -168.070068 82 20 11
7.136552 4.144457 -168.070068 81 18 11
7.045643 4.144457 -168.070068 82 20 14
6.954734 4.144457 -168.070068 85 23 16
6.863825 4.144457 -168.070068 85 23 15
6.772916 4.144457 -168.070068 83 21 13
6.682007 4.144457 -168.070068 84 22 14
6.591098 4.144457 -168.070068 84 22 15
6.500189 4.144457 -168.070068 84 22 16
6.409279 4.144457 -168.070068 82 20 14
6.010990 3.942835 -159.893692 79 15 11
5.892652 3.921637 -159.034042 81 16 14
5.714461 3.859389 -156.509689 81 16 15
5.629805 3.859389 -156.509689 81 16 14
5.515964 3.839076 -155.685959 83 19 15
5.347322 3.779401 -153.265976 86 21 17
5.264421 3.779401 -153.265976 88 22 19
5.050673 3.683962 -149.395615 86 22 18
1.345288 1.085453 -44.018353 68 14 13
1.321478 1.085453 -44.018353 66 14 11
-0.654712 1.085453 -44.018353 109 101 87
-0.678522 1.085453 -44.018353 111 102 88
-0.702331 1.085453 -44.018353 110 100 86
-0.726141 1.085453 -44.018353 110 99 85
-0.749951 1.085453 -44.018353 113 101 87
-0.773760 1.085453 -44.018353 114 103 89
-0.797570 1.085453 -44.018353 115 104 88
-0.821379 1.085453 -44.018353 115 105 88
-0.845189 1.085453 -44.018353 114 105 88
-0.868998 1.085453 -44.018353 111 103 86
-0.892808 1.085453 -44.018353 108 100 83
-0.916617 1.085453 -44.018353 107 100 83
-0.940427 1.085453 -44.018353 110 102 85
-0.964236 1.085453 -44.018353 110 102 85
-2.011855 1.085453 -44.018353 34 22 16
-2.035665 1.085453 -44.018353 31 21 14
-2.059474 1.085453 -44.018353 30 21 14
-2.249951 1.085453 -44.018353 15 13 5
-2.273760 1.085453 -44.018353 21 16 8
-2.297570 1.085453 -44.018353 20 14 7
-2.321379 1.085453 -44.018353 17 12 7
-2.345189 1.085453 -44.018353 13 9 4
-2.368998 1.085453 -44.018353 12 9 5
-2.392808 1.085453 -44.018353 14 11 7
-2.416617 1.085453 -44.018353 13 9 7
-2.440427 1.085453 -44.018353 7 5 4
-2.464236 1.085453 -44.018353 10 8 8
-2.488046 1.085453 -44.018353 14 12 12
-2.511855 1.085453 -44.018353 13 11 11
-2.535665 1.085453 -44.018353 18 16 16
-2.559474 1.085453 -44.018353 14 12 12
-2.583284 1.085453 -44.018353 18 16 16
-9.653687 3.506848 -142.213135 40 30 20
-9.873009 3.558168 -144.294296 47 37 27
-9.999837 3.575610 -145.001633 59 47 38
-10.078269 3.575610 -145.001633 67 54 46
-10.206733 3.593224 -145.715927 74 59 52
-10.626095 3.683962 -149.395615 76 62 55
-10.706903 3.683962 -149.395615 51 39 32
-10.787711 3.683962 -149.395615 43 33 26
-10.868519 3.683962 -149.395615 34 25 20
-10.949327 3.683962 -149.395615 18 12 9
-10.974708 3.665449 -148.644882 8 5 2
-10.999834 3.647122 -147.901657 6 4 1
-11.601920 3.818976 -154.870850 9 8 4
-11.935652 3.900666 -158.183594 20 18 16
-5.772290 1.482570 -60.122627 42 24 17
-27.227083 4.144457 -168.070068 107 100 85
-27.317993 4.144457 -168.070068 105 98 83
-27.408903 4.144457 -168.070068 107 98 84
-27.499811 4.144457 -168.070068 107 98 84
-27.590721 4.144457 -168.070068 106 97 84
-27.681629 4.144457 -168.070068 112 103 89
-27.772539 4.144457 -168.070068 108 99 85
-27.863447 4.144457 -168.070068 107 99 82
-27.954357 4.144457 -168.070068 105 97 80
8.011954 1.061643 -44.018353 95 88 71
7.988145 1.061643 -44.018353 93 89 70
7.964335 1.061643 -44.018353 94 90 71
7.940526 1.061643 -44.018353 94 87 70
7.916716 1.061643 -44.018353 93 87 68
7.892907 1.061643 -44.018353 97 92 73
7.869097 1.061643 -44.018353 91 88 67
7.845287 1.061643 -44.018353 91 87 69
7.821478 1.061643 -44.018353 97 93 75
7.797668 1.061643 -44.018353 92 87 72
7.773859 1.061643 -44.018353 93 87 74
7.750050 1.061643 -44.018353 95 89 78
7.726240 1.061643 -44.018353 92 86 73
7.702430 1.061643 -44.018353 94 87 72
7.678621 1.061643 -44.018353 92 85 68
16.773249 2.997582 -124.287109 32 12 10
16.162737 2.900099 -120.245255 30 9 7
15.840133 2.853698 -118.321327 25 4 2
15.111238 2.733427 -113.334602 27 6 4
5.559573 1.061643 -44.018353 39 31 17
5.535764 1.061643 -44.018353 48 39 27
5.511954 1.061643 -44.018353 42 33 24
5.488145 1.061643 -44.018353 44 34 27
5.464335 1.061643 -44.018353 55 45 37
5.440526 1.061643 -44.018353 64 53 45
5.416716 1.061643 -44.018353 73 63 53
5.392907 1.061643 -44.018353 78 67 57
5.369097 1.061643 -44.018353 80 69 62
5.345287 1.061643 -44.018353 70 58 54
5.321478 1.061643 -44.018353 63 52 50
20.136553 4.053548 -168.070068 52 45 45
20.045643 4.053548 -168.070068 47 42 41
19.863825 4.053548 -168.070068 35 29 28
19.772917 4.053548 -168.070068 39 31 31
19.682007 4.053548 -168.070068 35 27 27
19.591097 4.053548 -168.070068 36 28 28
19.500189 4.053548 -168.070068 41 32 32
19.409279 4.053548 -168.070068 38 28 28
19.318371 4.053548 -168.070068 32 22 22
19.227461 4.053548 -168.070068 29 19 19
7.459549 1.928174 -79.946846 26 9 8
7.336987 1.907552 -79.091797 26 11 9
7.160192 1.872505 -77.638664 27 12 10
6.936146 1.824615 -75.653023 26 11 9
6.689909 1.770284 -73.400330 28 13 11
6.457911 1.719095 -71.277908 29 14 12
6.209867 1.662994 -68.951820 29 14 12
5.950636 1.603201 -66.472656 30 14 12
5.721811 1.550923 -64.305069 28 10 9
5.519057 1.505115 -62.405766 27 7 6
5.317041 1.458946 -60.491478 32 11 10
8.863825 4.053548 -168.070068 86 21 12
8.772916 4.053548 -168.070068 86 21 12
8.682007 4.053548 -168.070068 86 21 12
8.591098 4.053548 -168.070068 85 20 15
8.500189 4.053548 -168.070068 85 20 19
8.409280 4.053548 -168.070068 85 19 19
8.318371 4.053548 -168.070068 84 19 18
8.227462 4.053548 -168.070068 84 19 17
8.136552 4.053548 -168.070068 83 19 15
7.682007 4.053548 -168.070068 82 20 10
7.409279 4.053548 -168.070068 82 20 10
7.318370 4.053548 -168.070068 83 21 11
7.227461 4.053548 -168.070068 80 18 8
7.136552 4.053548 -168.070068 81 19 11
7.045643 4.053548 -168.070068 85 23 17
6.954734 4.053548 -168.070068 84 22 15
6.863825 4.053548 -168.070068 86 24 16
6.772916 4.053548 -168.070068 87 25 17
6.682007 4.053548 -168.070068 85 23 15
6.591098 4.053548 -168.070068 83 21 13
6.500189 4.053548 -168.070068 85 23 17
6.409279 4.053548 -168.070068 89 26 21
6.010990 3.856348 -159.893692 88 24 20
5.924504 3.856348 -159.893692 87 22 19
5.775578 3.815104 -158.183594 83 18 17
5.659751 3.794811 -157.342194 81 15 14
5.487085 3.735206 -154.870850 83 16 13
5.265476 3.639921 -150.920059 85 18 15
1.369097 1.061643 -44.018353 74 17 16
1.345288 1.061643 -44.018353 71 16 14
1.321478 1.061643 -44.018353 66 14 11
1.297669 1.061643 -44.018353 63 13 10
-0.583284 1.061643 -44.018353 111 104 89
-0.654712 1.061643 -44.018353 108 100 86
-0.678522 1.061643 -44.018353 110 101 87
-0.702331 1.061643 -44.018353 113 103 89
-0.726141 1.061643 -44.018353 114 103 89
-0.749951 1.061643 -44.018353 115 102 88
-0.773760 1.061643 -44.018353 113 100 85
-0.797570 1.061643 -44.018353 111 100 84
-0.821379 1.061643 -44.018353 112 102 84
-0.845189 1.061643 -44.018353 112 103 86
-0.868998 1.061643 -44.018353 111 103 86
-0.892808 1.061643 -44.018353 108 101 84
-0.916617 1.061643 -44.018353 108 101 84
-0.940427 1.061643 -44.018353 110 103 86
-0.964236 1.061643 -44.018353 110 102 85
-2.011855 1.061643 -44.018353 34 22 16
-2.035665 1.061643 -44.018353 31 20 13
-2.059474 1.061643 -44.018353 29 20 13
-2.297570 1.061643 -44.018353 18 12 5
-2.321379 1.061643 -44.018353 13 9 3
-2.345189 1.061643 -44.018353 13 9 4
-2.368998 1.061643 -44.018353 16 13 8
-2.392808 1.061643 -44.018353 12 9 5
-2.416617 1.061643 -44.018353 9 6 4
-2.440427 1.061643 -44.018353 11 9 8
-2.464236 1.061643 -44.018353 10 8 7
-2.488046 1.061643 -44.018353 11 9 9
-2.511855 1.061643 -44.018353 13 11 11
-2.535665 1.061643 -44.018353 16 14 14
-2.559474 1.061643 -44.018353 13 11 11
-2.583284 1.061643 -44.018353 16 14 14
-2.607093 1.061643 -44.018353 16 14 14
-9.825082 3.463225 -143.593842 47 37 27
-9.951057 3.480119 -144.294296 62 50 41
-10.078269 3.497179 -145.001633 64 51 43
-10.206733 3.514406 -145.715927 69 54 46
-10.626095 3.603154 -149.395615 53 39 32
-10.706903 3.603154 -149.395615 42 29 21
-10.787711 3.603154 -149.395615 40 28 21
-10.759834 3.567122 -147.901657 43 32 25
-10.839834 3.567122 -147.901657 26 19 13
-10.919834 3.567122 -147.901657 12 7 4
-11.135511 3.585047 -148.644882 11 9 5
-11.504984 3.677446 -152.475937 13 13 11
-11.957271 3.794811 -157.342194 13 14 12
-5.772290 1.450050 -60.122627 44 28 20
-27.227083 4.053548 -168.070068 107 100 85
-27.317993 4.053548 -168.070068 106 99 84
-27.408903 4.053548 -168.070068 108 99 85
-27.499811 4.053548 -168.070068 107 98 84
-27.590721 4.053548 -168.070068 105 96 83
-27.681629 4.053548 -168.070068 111 102 88
-27.772539 4.053548 -168.070068 108 100 84
-27.863447 4.053548 -168.070068 106 98 81
-27.954357 4.053548 -168.070068 104 96 79
-11.336031 1.480134 -61.369984 107 100 83
8.035764 1.037834 -44.018353 92 83 69
8.011954 1.037834 -44.018353 90 83 66
7.988145 1.037834 -44.018353 89 85 66
7.964335 1.037834 -44.018353 87 83 64
7.940526 1.037834 -44.018353 92 88 70
7.916716 1.037834 -44.018353 89 85 66
7.892907 1.037834 -44.018353 90 86 67
7.869097 1.037834 -44.018353 89 86 65
7.845287 1.037834 -44.018353 93 89 70
7.821478 1.037834 -44.018353 91 89 71
7.797668 1.037834 -44.018353 93 90 76
7.773859 1.037834 -44.018353 89 85 74
7.750050 1.037834 -44.018353 89 85 74
7.726240 1.037834 -44.018353 91 88 74
7.702430 1.037834 -44.018353 93 88 72
7.678621 1.037834 -44.018353 89 85 67
17.426231 3.032280 -128.610138 33 12 11
17.059971 2.980446 -126.411674 35 14 12
16.429890 2.881919 -122.232780 34 13 11
15.527690 2.745765 -116.458000 30 9 9
5.583383 1.037834 -44.018353 47 35 21
5.559573 1.037834 -44.018353 41 33 20
5.535764 1.037834 -44.018353 47 41 30
5.511954 1.037834 -44.018353 38 33 24
5.488145 1.037834 -44.018353 43 37 30
5.464335 1.037834 -44.018353 60 51 44
5.440526 1.037834 -44.018353 62 53 43
5.416716 1.037834 -44.018353 61 51 41
5.392907 1.037834 -44.018353 62 52 42
5.369097 1.037834 -44.018353 69 57 49
20.045643 3.962639 -168.070068 48 43 42
19.954735 3.962639 -168.070068 40 36 35
19.863825 3.962639 -168.070068 35 31 30
19.772917 3.962639 -168.070068 37 32 31
19.682007 3.962639 -168.070068 39 34 32
19.591097 3.962639 -168.070068 42 37 34
19.500189 3.962639 -168.070068 36 30 27
19.409279 3.962639 -168.070068 37 30 27
19.318371 3.962639 -168.070068 32 25 22
6.108881 1.308489 -55.497810 113 100 90
6.090288 1.310948 -55.602127 119 103 96
6.071626 1.313417 -55.706841 113 96 91
6.110539 1.328428 -56.343491 80 62 57
6.091666 1.330963 -56.451015 54 36 34
7.668600 1.926587 -81.713623 28 11 12
7.541074 1.905531 -80.820580 28 12 13
7.356658 1.869771 -79.303841 27 11 12
7.236162 1.849932 -78.462418 27 11 12
6.971808 1.792865 -76.041985 28 12 13
6.808165 1.761173 -74.697807 27 11 11
6.568709 1.709374 -72.500816 28 13 11
6.297951 1.648758 -69.929863 29 13 12
6.129706 1.614408 -68.472992 30 12 11
5.888217 1.560234 -66.175240 30 11 10
5.566028 1.483882 -62.936878 31 12 9
5.371969 1.440960 -61.116390 33 11 9
5.241446 1.414654 -60.000675 34 11 9
8.863825 3.962639 -168.070068 85 20 11
8.772916 3.962639 -168.070068 87 21 12
8.682007 3.962639 -168.070068 87 20 14
8.591098 3.962639 -168.070068 86 21 17
8.500189 3.962639 -168.070068 85 21 18
8.409280 3.962639 -168.070068 81 17 16
8.318371 3.962639 -168.070068 81 17 16
8.136552 3.962639 -168.070068 82 19 15
7.772916 3.962639 -168.070068 78 16 8
7.682007 3.962639 -168.070068 79 17 9
7.591098 3.962639 -168.070068 80 18 10
7.409279 3.962639 -168.070068 81 19 9
7.318370 3.962639 -168.070068 82 20 10
7.227461 3.962639 -168.070068 82 20 10
7.136552 3.962639 -168.070068 83 20 12
7.045643 3.962639 -168.070068 85 21 16
6.954734 3.962639 -168.070068 83 19 13
6.863825 3.962639 -168.070068 83 20 12
6.772916 3.962639 -168.070068 84 21 13
6.682007 3.962639 -168.070068 84 21 13
6.591098 3.962639 -168.070068 83 20 12
6.500189 3.962639 -168.070068 85 21 15
6.409279 3.962639 -168.070068 87 23 18
6.318370 3.962639 -168.070068 86 22 18
6.227461 3.962639 -168.070068 86 22 18
5.838017 3.769862 -159.893692 87 23 19
5.720609 3.749594 -159.034042 83 18 14
5.515964 3.670655 -155.685959 84 17 14
5.238747 3.540226 -150.153976 85 18 14
1.369097 1.037834 -44.018353 75 17 16
1.345288 1.037834 -44.018353 73 18 17
1.321478 1.037834 -44.018353 68 16 14
-0.583284 1.037834 -44.018353 109 104 89
-0.607093 1.037834 -44.018353 110 103 88
-0.654712 1.037834 -44.018353 110 102 88
-0.678522 1.037834 -44.018353 112 103 89
-0.702331 1.037834 -44.018353 113 102 88
-0.726141 1.037834 -44.018353 111 100 86
-0.749951 1.037834 -44.018353 110 100 84
-0.773760 1.037834 -44.018353 111 101 84
-0.797570 1.037834 -44.018353 111 101 83
-0.821379 1.037834 -44.018353 111 101 82
-0.845189 1.037834 -44.018353 110 102 83
-0.868998 1.037834 -44.018353 109 102 83
-0.892808 1.037834 -44.018353 110 103 84
-0.916617 1.037834 -44.018353 111 105 86
-0.940427 1.037834 -44.018353 111 104 85
-0.964236 1.037834 -44.018353 110 103 84
-2.035665 1.037834 -44.018353 31 20 13
-2.059474 1.037834 -44.018353 27 18 11
-2.321379 1.037834 -44.018353 17 12 6
-2.345189 1.037834 -44.018353 12 8 3
-2.368998 1.037834 -44.018353 10 7 3
-2.392808 1.037834 -44.018353 11 8 4
-2.416617 1.037834 -44.018353 12 9 7
-2.440427 1.037834 -44.018353 10 8 7
-2.464236 1.037834 -44.018353 8 6 6
-2.488046 1.037834 -44.018353 12 10 10
-2.511855 1.037834 -44.018353 11 9 9
-2.535665 1.037834 -44.018353 14 12 12
-2.559474 1.037834 -44.018353 11 9 9
-2.583284 1.037834 -44.018353 10 8 8
-2.607093 1.037834 -44.018353 15 11 12
-9.854912 3.369200 -142.900162 54 43 32
-10.029106 3.402071 -144.294296 58 46 36
-10.156700 3.418747 -145.001633 59 45 36
-10.387895 3.469773 -147.165833 46 31 22
-10.519834 3.487122 -147.901657 39 24 15
-10.599834 3.487122 -147.901657 41 28 18
-10.679834 3.487122 -147.901657 42 29 21
-10.706303 3.469773 -147.165833 47 35 28
-10.732509 3.452596 -146.437286 40 31 24
-10.811717 3.452596 -146.437286 25 18 13
-10.837275 3.435588 -145.715927 17 13 8
-10.970133 3.452596 -146.437286 13 12 6
-11.104313 3.469773 -147.165833 9 10 5
-10.350732 3.058879 -129.738297 11 7 6
-27.227083 3.962639 -168.070068 110 103 88
-27.317993 3.962639 -168.070068 111 104 89
-27.499811 3.962639 -168.070068 109 100 86
-27.590721 3.962639 -168.070068 110 101 87
-27.772539 3.962639 -168.070068 105 98 81
-27.863447 3.962639 -168.070068 108 101 84
-27.954357 3.962639 -168.070068 107 99 82
-11.336031 1.446939 -61.369984 108 101 84
8.306799 1.045130 -45.368607 92 83 69
8.035764 1.014024 -44.018353 88 81 66
8.011954 1.014024 -44.018353 86 80 61
7.988145 1.014024 -44.018353 88 84 65
7.964335 1.014024 -44.018353 89 86 65
7.940526 1.014024 -44.018353 90 86 68
7.916716 1.014024 -44.018353 88 84 65
7.892907 1.014024 -44.018353 87 83 64
7.869097 1.014024 -44.018353 88 85 64
7.845287 1.014024 -44.018353 86 85 65
7.821478 1.014024 -44.018353 91 89 71
7.797668 1.014024 -44.018353 93 90 76
7.773859 1.014024 -44.018353 91 87 76
7.750050 1.014024 -44.018353 91 87 76
7.726240 1.014024 -44.018353 89 86 72
7.702430 1.014024 -44.018353 90 85 70
7.678621 1.014024 -44.018353 90 86 68
17.281528 2.949889 -128.053391 41 17 17
16.919291 2.899678 -125.873756 41 18 17
16.229645 2.792723 -121.230865 42 19 19
5.678621 1.014024 -44.018353 40 20 14
5.607192 1.014024 -44.018353 57 41 28
5.583383 1.014024 -44.018353 44 34 20
5.559573 1.014024 -44.018353 38 30 18
5.535764 1.014024 -44.018353 42 38 27
5.511954 1.014024 -44.018353 52 50 40
5.488145 1.014024 -44.018353 64 60 52
20.409279 3.871730 -168.070068 67 53 48
19.954735 3.871730 -168.070068 33 28 27
19.682007 3.871730 -168.070068 42 38 36
19.591097 3.871730 -168.070068 48 43 40
19.500189 3.871730 -168.070068 36 30 27
19.409279 3.871730 -168.070068 36 29 26
19.318371 3.871730 -168.070068 38 31 27
5.960562 1.223383 -53.106522 70 58 53
6.055310 1.254925 -54.475750 46 34 22
6.093172 1.268947 -55.084415 69 57 44
6.063376 1.268947 -55.084415 88 73 64
6.022367 1.266588 -54.982029 105 89 81
5.992627 1.266588 -54.982029 93 74 69
5.966417 1.273691 -55.290340 51 33 32
5.947628 1.276076 -55.393879 37 19 19
5.917665 1.276076 -55.393879 34 18 19
5.887702 1.276076 -55.393879 38 22 23
7.668600 1.882388 -81.713623 29 12 13
7.479765 1.846679 -80.163498 29 13 14
7.336987 1.821990 -79.091797 28 12 13
7.217019 1.802710 -78.254845 27 11 12
7.025993 1.765348 -76.632988 26 10 11
6.877636 1.738328 -75.460030 25 9 9
6.683374 1.699313 -73.766411 25 10 8
5.439400 1.425574 -61.883541 33 11 9
8.863825 3.871730 -168.070068 83 20 11
8.772916 3.871730 -168.070068 84 18 10
8.682007 3.871730 -168.070068 86 19 13
8.591098 3.871730 -168.070068 85 20 16
8.500189 3.871730 -168.070068 82 18 15
8.409280 3.871730 -168.070068 81 17 16
8.227462 3.871730 -168.070068 83 20 17
7.772916 3.871730 -168.070068 80 18 10
7.682007 3.871730 -168.070068 82 20 12
7.409279 3.871730 -168.070068 83 21 11
7.318370 3.871730 -168.070068 85 23 13
7.227461 3.871730 -168.070068 86 23 14
7.136552 3.871730 -168.070068 85 22 15
7.045643 3.871730 -168.070068 84 20 15
6.954734 3.871730 -168.070068 82 18 13
6.863825 3.871730 -168.070068 81 17 11
6.772916 3.871730 -168.070068 81 18 10
6.682007 3.871730 -168.070068 82 19 11
6.591098 3.871730 -168.070068 83 20 12
6.500189 3.871730 -168.070068 85 22 14
6.409279 3.871730 -168.070068 87 24 17
6.318370 3.871730 -168.070068 85 21 17
6.227461 3.871730 -168.070068 83 19 15
5.838017 3.683375 -159.893692 82 18 14
5.720609 3.663572 -159.034042 83 17 14
5.515964 3.586444 -155.685959 85 18 15
1.392907 1.014024 -44.018353 80 20 17
1.369097 1.014024 -44.018353 78 19 19
1.345288 1.014024 -44.018353 74 18 17
1.321478 1.014024 -44.018353 72 18 17
-0.559474 1.014024 -44.018353 109 104 89
-0.583284 1.014024 -44.018353 107 102 87
-0.607093 1.014024 -44.018353 108 102 87
-0.630903 1.014024 -44.018353 110 103 88
-0.654712 1.014024 -44.018353 111 102 88
-0.678522 1.014024 -44.018353 111 102 88
-0.702331 1.014024 -44.018353 112 101 87
-0.726141 1.014024 -44.018353 111 100 86
-0.749951 1.014024 -44.018353 110 100 84
-0.773760 1.014024 -44.018353 111 101 83
-0.797570 1.014024 -44.018353 111 101 83
-0.821379 1.014024 -44.018353 111 102 82
-0.845189 1.014024 -44.018353 109 101 81
-0.868998 1.014024 -44.018353 107 100 80
-0.892808 1.014024 -44.018353 106 100 81
-0.916617 1.014024 -44.018353 107 101 82
-0.940427 1.014024 -44.018353 108 102 83
-2.035665 1.014024 -44.018353 31 22 14
-2.059474 1.014024 -44.018353 27 18 11
-2.321379 1.014024 -44.018353 20 13 7
-2.345189 1.014024 -44.018353 14 10 5
-2.368998 1.014024 -44.018353 10 6 2
-2.392808 1.014024 -44.018353 10 6 2
-2.416617 1.014024 -44.018353 14 10 8
-2.440427 1.014024 -44.018353 13 10 9
-2.464236 1.014024 -44.018353 8 4 4
-2.488046 1.014024 -44.018353 8 3 4
-2.511855 1.014024 -44.018353 10 5 6
-2.535665 1.014024 -44.018353 12 7 8
-2.559474 1.014024 -44.018353 12 7 8
-2.583284 1.014024 -44.018353 10 6 5
-2.607093 1.014024 -44.018353 12 7 6
-10.107155 3.324022 -144.294296 45 33 23
-10.336470 3.373388 -146.437286 37 23 14
-10.467497 3.390171 -147.165833 41 26 17
-10.547098 3.390171 -147.165833 41 26 17
-10.626700 3.390171 -147.165833 45 31 23
-10.600821 3.356771 -145.715927 48 35 27
-10.679640 3.356771 -145.715927 48 37 30
-10.758457 3.356771 -145.715927 42 33 26
-10.784151 3.340316 -145.001633 27 21 16
-10.916093 3.356771 -145.715927 12 9 4
-11.049340 3.373388 -146.437286 7 6 1
-11.019445 3.340316 -145.001633 6 7 3
-10.937037 3.291905 -142.900162 7 6 4
-10.908932 3.260404 -141.532684 9 7 6
-10.830032 3.214266 -139.529861 10 6 6
-10.511062 3.055715 -132.647232 12 9 6
-10.216307 2.949889 -128.053391 12 9 5
-24.772539 3.871730 -168.070068 109 101 84
-27.863447 3.871730 -168.070068 107 100 83
-27.954357 3.871730 -168.070068 108 100 83
-11.312561 1.410817 -61.242924 108 101 84
-11.322246 1.407902 -61.116390 107 100 83
-11.331890 1.404999 -60.990376 107 100 81
8.527525 1.044622 -46.436943 94 85 72
8.306799 1.020590 -45.368607 93 84 70
8.035764 0.990215 -44.018353 88 81 66
8.011954 0.990215 -44.018353 86 80 61
7.988145 0.990215 -44.018353 89 85 66
7.964335 0.990215 -44.018353 94 91 70
7.940526 0.990215 -44.018353 92 88 70
7.916716 0.990215 -44.018353 92 88 69
7.892907 0.990215 -44.018353 89 85 66
7.869097 0.990215 -44.018353 91 88 67
7.845287 0.990215 -44.018353 86 85 65
7.821478 0.990215 -44.018353 91 89 71
7.797668 0.990215 -44.018353 91 88 73
7.773859 0.990215 -44.018353 90 87 73
7.750050 0.990215 -44.018353 91 87 76
7.726240 0.990215 -44.018353 91 88 74
7.702430 0.990215 -44.018353 95 90 75
6.353354 1.022157 -45.438297 41 15 11
6.214228 1.003657 -44.615887 38 14 12
5.773859 0.990215 -44.018353 30 12 13
5.750050 0.990215 -44.018353 25 7 6
5.726240 0.990215 -44.018353 24 6 5
5.702430 0.990215 -44.018353 29 12 8
5.678621 0.990215 -44.018353 42 23 16
5.607192 0.990215 -44.018353 52 37 25
5.583383 0.990215 -44.018353 41 29 18
5.559573 0.990215 -44.018353 34 26 16
5.535764 0.990215 -44.018353 34 30 19
5.511954 0.990215 -44.018353 54 51 42
5.488145 0.990215 -44.018353 59 56 48
19.502882 3.596889 -159.893692 49 36 28
19.312006 3.577551 -159.034042 52 38 33
19.123173 3.558419 -158.183594 71 57 58
18.936346 3.539492 -157.342194 62 51 51
18.851240 3.539492 -157.342194 50 41 40
18.766134 3.539492 -157.342194 48 43 40
18.780926 3.558419 -158.183594 40 35 32
18.695364 3.558419 -158.183594 37 32 29
18.709856 3.577551 -159.034042 42 39 35
5.960562 1.194658 -53.106522 68 58 50
6.033089 1.220962 -54.275837 42 30 17
6.070562 1.234554 -54.880024 51 37 25
5.959396 1.229990 -54.677139 80 61 56
5.918880 1.227720 -54.576260 80 61 57
5.911172 1.232267 -54.778393 49 31 30
5.892455 1.234554 -54.880024 36 19 18
7.798975 1.858727 -82.626625 33 13 13
7.668600 1.838189 -81.713623 29 10 12
7.459549 1.798444 -79.946846 28 10 12
7.317422 1.774465 -78.880882 29 11 12
7.197977 1.755737 -78.048370 28 10 11
6.989776 1.715011 -76.237968 27 9 10
6.860136 1.693192 -75.268021 28 10 11
6.733752 1.671921 -74.322441 29 11 12
8.863825 3.780821 -168.070068 83 19 12
8.772916 3.780821 -168.070068 84 17 12
8.682007 3.780821 -168.070068 85 17 12
8.591098 3.780821 -168.070068 83 18 14
8.500189 3.780821 -168.070068 81 19 15
8.318371 3.780821 -168.070068 82 21 17
8.227462 3.780821 -168.070068 83 21 17
7.136552 3.780821 -168.070068 83 20 14
7.045643 3.780821 -168.070068 85 21 16
6.954734 3.780821 -168.070068 84 20 15
6.863825 3.780821 -168.070068 82 18 13
6.772916 3.780821 -168.070068 81 17 11
6.682007 3.780821 -168.070068 81 18 10
6.591098 3.780821 -168.070068 83 20 12
6.500189 3.780821 -168.070068 84 21 13
6.409279 3.780821 -168.070068 85 22 15
1.392907 0.990215 -44.018353 78 15 13
1.369097 0.990215 -44.018353 80 19 19
1.345288 0.990215 -44.018353 78 20 19
1.321478 0.990215 -44.018353 73 17 16
1.297669 0.990215 -44.018353 71 18 16
1.273859 0.990215 -44.018353 67 18 15
-0.559474 0.990215 -44.018353 110 104 89
-0.583284 0.990215 -44.018353 110 103 88
-0.607093 0.990215 -44.018353 112 105 90
-0.630903 0.990215 -44.018353 113 106 91
-0.654712 0.990215 -44.018353 114 106 90
-0.678522 0.990215 -44.018353 113 105 88
-0.702331 0.990215 -44.018353 112 104 87
-0.726141 0.990215 -44.018353 112 104 87
-0.749951 0.990215 -44.018353 113 104 87
-0.773760 0.990215 -44.018353 113 103 86
-0.797570 0.990215 -44.018353 111 101 83
-0.821379 0.990215 -44.018353 110 101 81
-0.845189 0.990215 -44.018353 108 100 80
-0.868998 0.990215 -44.018353 106 99 79
-0.892808 0.990215 -44.018353 105 99 80
-0.916617 0.990215 -44.018353 106 100 81
-2.321379 0.990215 -44.018353 17 11 5
-2.345189 0.990215 -44.018353 10 4 1
-2.368998 0.990215 -44.018353 11 4 1
-2.392808 0.990215 -44.018353 18 12 9
-2.416617 0.990215 -44.018353 23 18 15
-2.440427 0.990215 -44.018353 20 16 13
-2.464236 0.990215 -44.018353 15 11 9
-2.488046 0.990215 -44.018353 14 9 8
-2.511855 0.990215 -44.018353 12 7 6
-2.535665 0.990215 -44.018353 8 3 2
-2.559474 0.990215 -44.018353 11 4 4
-10.519834 3.327122 -147.901657 36 22 10
-10.733501 3.343841 -148.644882 40 26 16
-10.653301 3.294180 -146.437286 41 28 19
-10.679640 3.277953 -145.715927 42 30 22
-10.758457 3.277953 -145.715927 43 34 25
-10.784151 3.261884 -145.001633 38 31 23
-10.916093 3.277953 -145.715927 20 16 11
-11.049340 3.294180 -146.437286 8 7 3
-10.912460 3.230216 -143.593842 7 6 2
-10.729700 3.153670 -140.191147 6 3 1
-10.654051 3.109460 -138.225845 8 4 3
-10.533787 3.010970 -133.847656 18 13 11
