ply
format ascii 1.0
element vertex 1228
property float x
property float y
property float z
property uchar red
property uchar green
property uchar blue
end_header
-6.407425 -1.623581 -141.701294 5 7 7
-6.679089 -1.615922 -141.032883 8 7 9
-17.638155 -4.127416 -360.228577 27 25 24
-12.588890 -2.655624 -231.774979 20 19 15
3.879888 -0.316763 -26.412519 26 28 22
3.872596 -0.317323 -26.459269 26 27 18
3.865278 -0.317886 -26.506182 33 25 18
3.815305 -0.318451 -26.553261 101 22 19
3.804474 -0.318734 -26.576864 111 18 17
6.634514 -0.577416 -48.146492 209 25 25
6.524695 -0.570072 -47.534138 220 28 29
3.445037 -0.303363 -25.295238 225 27 33
3.414169 -0.301831 -25.167486 215 23 30
3.392135 -0.301071 -25.104092 196 15 24
3.373037 -0.300566 -25.062006 154 7 15
3.356812 -0.300314 -25.041016 94 4 4
3.343411 -0.300314 -25.041016 49 1 0
3.332802 -0.300566 -25.062006 22 1 0
3.316611 -0.300314 -25.041016 8 2 3
3.300446 -0.300063 -25.020061 1 1 1
3.284309 -0.299812 -24.999142 0 3 2
3.270931 -0.299812 -24.999142 0 4 3
3.254831 -0.299562 -24.978256 0 4 3
3.244175 -0.299812 -24.999142 7 1 2
3.563120 -0.337642 -28.153458 13 6 3
3.551398 -0.337960 -28.179993 15 6 2
3.536318 -0.337960 -28.179993 24 13 9
3.524560 -0.338279 -28.206577 43 23 18
3.509465 -0.338279 -28.206577 68 27 24
3.494371 -0.338279 -28.206577 83 32 30
3.485854 -0.338918 -28.259899 83 27 26
3.454406 -0.337324 -28.126974 86 24 24
3.339480 -0.328968 -27.430250 86 13 15
3.291583 -0.325682 -27.156197 88 11 14
3.256348 -0.323624 -26.984632 87 8 11
3.233153 -0.322750 -26.911766 99 16 18
3.218752 -0.322750 -26.911766 97 10 13
3.201469 -0.322460 -26.887566 100 10 10
3.189949 -0.322750 -26.911766 106 10 10
3.175547 -0.322750 -26.911766 106 4 5
3.161146 -0.322750 -26.911766 111 3 2
3.141090 -0.322170 -26.863407 113 1 1
3.087374 -0.319586 -26.647926 116 3 1
14.028403 -2.525180 -210.556152 232 32 33
13.818414 -2.507521 -209.083725 232 32 33
13.706526 -2.507521 -209.083725 235 32 35
13.500231 -2.490108 -207.631760 230 25 28
1.637660 -0.312348 -26.044401 228 16 22
1.586295 -0.307790 -25.664354 230 16 22
1.553887 -0.304135 -25.359604 231 14 21
1.518422 -0.299812 -24.999142 229 12 19
1.576566 -0.328667 -27.405107 231 17 23
1.560470 -0.328366 -27.380013 232 18 24
1.545818 -0.328366 -27.380013 230 18 24
1.477737 -0.326274 -27.205616 224 23 27
5.194560 -1.245054 -103.815880 32 2 1
6.280848 -1.572700 -131.135849 3 4 0
6.378528 -1.615205 -134.680054 18 17 13
6.278176 -1.607962 -134.076111 23 22 18
6.206427 -1.607962 -134.076111 5 1 0
6.107291 -1.600783 -133.477554 8 4 3
6.009037 -1.593669 -132.884323 35 29 30
5.937925 -1.593669 -132.884323 58 53 54
5.893005 -1.600783 -133.477554 85 80 81
7.798951 -2.255192 -188.043854 87 75 69
7.747046 -2.269465 -189.234009 22 18 13
7.743803 -2.298561 -191.660080 2 1 0
7.497064 -2.255192 -188.043854 6 6 6
7.538674 -2.298561 -191.660080 4 3 5
7.785458 -2.406547 -200.664246 4 4 4
7.782539 -2.439289 -203.394379 5 5 5
7.621846 -2.422807 -202.020081 5 5 5
7.564852 -2.439289 -203.394379 4 4 4
7.558850 -2.472934 -206.199814 4 4 4
7.500231 -2.490108 -207.631760 4 4 4
7.338160 -2.472934 -206.199814 4 4 4
7.129478 -2.439289 -203.394379 3 3 3
7.068720 -2.455997 -204.787491 5 5 5
7.055786 -2.490108 -207.631760 4 4 4
7.092434 -2.543089 -212.049454 4 4 4
4.439743 -1.970195 -164.280075 6 4 3
4.351831 -1.970195 -164.280075 8 4 3
4.263919 -1.970195 -164.280075 29 24 21
0.844593 -0.688245 -57.387665 37 32 33
0.812324 -0.686926 -57.277725 46 41 40
0.781673 -0.686926 -57.277725 38 33 32
0.756821 -0.692231 -57.720024 37 34 30
0.714892 -0.681702 -56.842152 57 54 50
0.671704 -0.668984 -55.781666 33 30 26
0.660332 -0.688245 -57.387665 61 58 54
0.629622 -0.688245 -57.387665 35 32 28
0.598912 -0.688245 -57.387665 40 37 33
0.568202 -0.688245 -57.387665 37 35 34
0.536462 -0.686926 -57.277725 38 36 35
0.449677 -0.694914 -57.943745 19 17 17
0.421117 -0.698978 -58.282597 19 17 17
0.383941 -0.688245 -57.387665 18 16 16
0.346579 -0.675283 -56.306915 19 17 17
0.315852 -0.674014 -56.201077 22 20 19
0.288488 -0.680409 -56.734295 21 19 18
-0.140286 -0.698978 -58.282597 21 19 18
-0.171142 -0.697618 -58.169209 25 23 23
-0.199170 -0.686926 -57.277725 18 16 16
-0.226780 -0.677836 -56.519798 23 21 20
-0.255577 -0.674014 -56.201077 17 15 14
-0.290567 -0.685613 -57.168209 24 22 21
-0.321160 -0.685613 -57.168209 23 21 20
-0.352427 -0.686926 -57.277725 20 18 18
-0.412938 -0.685613 -57.168209 37 35 34
-0.443531 -0.685613 -57.168209 20 18 17
-0.477778 -0.690897 -57.608810 17 16 12
-0.508607 -0.690897 -57.608810 20 19 15
-0.536335 -0.686926 -57.277725 19 18 14
-0.565902 -0.685613 -57.168209 24 23 19
-0.591967 -0.680409 -56.734295 20 16 15
-0.619975 -0.677836 -56.519798 21 17 16
-0.650221 -0.677836 -56.519798 26 21 22
-0.681755 -0.679120 -56.626842 19 14 15
-0.709371 -0.676558 -56.413155 25 20 19
-0.738167 -0.675283 -56.306915 28 23 22
-0.765416 -0.672750 -56.095634 35 31 30
-1.122464 -0.708647 -59.088879 23 21 20
-1.151808 -0.707250 -58.972332 45 43 42
-1.181037 -0.705857 -58.856247 36 34 33
-1.313860 -0.745479 -62.160027 41 39 38
-1.322381 -0.731787 -61.018311 37 35 34
-1.312187 -0.708647 -59.088879 48 44 43
-1.310148 -0.690897 -57.608810 32 28 27
-1.351392 -0.696263 -58.056259 48 43 42
-1.385149 -0.697618 -58.169209 40 35 34
-1.416278 -0.697618 -58.169209 38 34 33
-1.447406 -0.697618 -58.169209 45 41 40
-5.632940 -2.121748 -176.916992 15 11 10
-5.693923 -2.109268 -175.876312 14 10 9
-5.754192 -2.096933 -174.847794 8 6 5
-5.813760 -2.084741 -173.831238 18 16 15
-5.906784 -2.084741 -173.831238 33 31 30
-6.034894 -2.096933 -174.847794 7 5 4
-6.092830 -2.084741 -173.831238 7 7 7
-6.185853 -2.084741 -173.831238 1 1 1
-6.352746 -2.109268 -175.876312 0 1 1
-17.428177 -4.268756 -355.940155 25 23 23
-11.939142 -2.716481 -226.507370 20 19 15
-11.969675 -2.696056 -224.804306 20 19 15
-12.687241 -2.801371 -233.585724 19 18 14
-12.812241 -2.801371 -233.585724 20 19 15
-12.738206 -2.758273 -229.992096 24 21 16
3.801095 -0.332660 -26.553261 101 18 16
3.431500 -0.316900 -25.295238 226 24 31
3.403566 -0.315565 -25.188688 224 16 28
3.381541 -0.314769 -25.125187 195 13 21
3.362444 -0.314241 -25.083031 146 11 13
3.346214 -0.313978 -25.062006 99 7 6
3.332802 -0.313978 -25.062006 58 0 1
3.313835 -0.313452 -25.020061 32 0 1
3.300446 -0.313452 -25.020061 14 0 1
3.284309 -0.313190 -24.999142 4 2 1
3.270931 -0.313190 -24.999142 0 4 2
3.257553 -0.313190 -24.999142 0 1 1
3.249609 -0.313715 -25.041016 7 1 2
3.241639 -0.314241 -25.083031 13 5 6
3.225510 -0.313978 -25.062006 4 4 4
3.566478 -0.353040 -28.179993 9 4 1
3.548054 -0.352708 -28.153458 12 3 0
3.532988 -0.352708 -28.153458 21 10 6
3.521238 -0.353040 -28.179993 40 20 15
3.506158 -0.353040 -28.179993 66 25 23
3.491077 -0.353040 -28.179993 83 29 28
3.482562 -0.353707 -28.233213 75 18 17
3.460917 -0.353040 -28.179993 75 13 13
3.348697 -0.344596 -27.505955 85 15 16
3.297573 -0.340833 -27.205616 92 17 19
3.265188 -0.338982 -27.057894 86 9 12
3.238984 -0.337760 -26.960300 95 15 16
3.221652 -0.337455 -26.936012 97 13 15
3.204350 -0.337152 -26.911766 102 12 12
3.192823 -0.337455 -26.936012 111 15 15
3.184145 -0.338065 -26.984632 106 5 3
3.166847 -0.337760 -26.960300 108 2 1
3.143915 -0.336848 -26.887566 113 1 1
3.121106 -0.335942 -26.815222 116 2 2
3.079141 -0.332956 -26.576864 120 4 3
3.045966 -0.330897 -26.412519 119 3 2
14.127895 -2.656564 -212.049454 234 34 35
13.915727 -2.637856 -210.556152 232 32 33
13.803051 -2.637856 -210.556152 236 33 36
13.594638 -2.619409 -209.083725 234 29 32
1.639087 -0.326570 -26.067108 227 15 21
1.587657 -0.321800 -25.686403 229 15 21
1.555206 -0.317976 -25.381132 230 13 20
1.519693 -0.313452 -25.020061 226 9 16
1.479083 -0.341143 -27.230394 225 24 28
6.226231 -1.628589 -129.995529 8 9 5
6.349925 -1.679711 -134.076111 12 13 9
6.278176 -1.679711 -134.076111 15 14 10
6.178720 -1.672212 -133.477554 14 10 9
6.080148 -1.664780 -132.884323 11 7 6
5.982448 -1.657414 -132.296341 26 20 21
5.911651 -1.657414 -132.296341 34 29 30
5.840855 -1.657414 -132.296341 94 92 92
7.848311 -2.370731 -189.234009 83 72 68
7.747046 -2.370731 -189.234009 21 18 14
7.793763 -2.416616 -192.896591 4 5 3
7.592568 -2.385831 -190.439316 6 6 6
7.636579 -2.432308 -194.149170 0 0 1
7.733555 -2.497170 -199.326477 2 2 2
7.729954 -2.530915 -202.020081 3 3 3
7.570693 -2.513930 -200.664246 4 4 4
7.513738 -2.530915 -202.020081 4 4 4
7.456008 -2.548133 -203.394379 3 3 3
7.397488 -2.565586 -204.787491 4 4 4
7.238321 -2.548133 -203.394379 4 4 4
7.033780 -2.513930 -200.664246 4 4 4
7.020634 -2.548133 -203.394379 2 2 2
7.105127 -2.619409 -209.083725 2 2 2
4.464272 -2.069478 -165.187698 6 4 3
4.351831 -2.058107 -164.280075 6 2 1
4.263919 -2.058107 -164.280075 23 18 15
0.854028 -0.459602 -36.685856 18 15 11
0.844593 -0.718955 -57.387665 43 38 39
0.812324 -0.717578 -57.277725 40 35 34
0.781673 -0.717578 -57.277725 39 34 33
0.753910 -0.720338 -57.498024 51 48 44
0.717621 -0.714839 -57.059109 33 30 26
0.672959 -0.700141 -55.885929 46 43 39
0.659067 -0.717578 -57.277725 38 35 31
0.628416 -0.717578 -57.277725 47 44 40
0.597765 -0.717578 -57.277725 43 40 36
0.567113 -0.717578 -57.277725 35 33 32
0.535436 -0.716206 -57.168209 37 35 34
0.506782 -0.718955 -57.387665 27 25 25
0.476987 -0.720338 -57.498024 14 12 12
0.448807 -0.724517 -57.831669 22 20 20
0.418669 -0.725922 -57.943745 20 18 18
0.383205 -0.717578 -57.277725 20 18 18
0.346579 -0.705415 -56.306915 15 13 13
0.316447 -0.705415 -56.306915 20 18 17
0.288488 -0.710769 -56.734295 19 17 16
-0.171475 -0.730167 -58.282597 18 16 16
-0.198789 -0.716206 -57.168209 19 17 17
-0.226352 -0.706746 -56.413155 16 14 13
-0.255097 -0.702768 -56.095634 15 13 12
-0.290013 -0.714839 -57.059109 24 22 21
-0.443531 -0.716206 -57.168209 35 33 32
-0.594222 -0.713477 -56.950424 26 22 21
-0.621149 -0.709423 -56.626842 19 15 14
-0.650221 -0.708082 -56.519798 24 19 20
-0.680467 -0.708082 -56.519798 22 17 18
-0.706704 -0.704089 -56.201077 28 23 22
-0.735397 -0.702768 -56.095634 46 41 40
-0.763983 -0.701452 -55.990585 32 28 27
-1.149541 -0.737353 -58.856247 39 37 36
-1.313860 -0.778743 -62.160027 36 34 33
-1.309024 -0.756718 -60.401966 48 46 45
-1.294282 -0.730167 -58.282597 33 29 28
-1.310148 -0.721725 -57.608810 46 42 41
-1.351392 -0.727331 -58.056259 41 36 35
-1.385149 -0.728746 -58.169209 39 34 33
-5.685326 -2.355821 -188.043854 19 14 15
-5.575556 -2.270154 -181.205902 11 6 7
-5.604591 -2.242967 -179.035767 15 10 11
-5.666469 -2.229616 -177.970078 16 12 11
-5.727614 -2.216423 -176.916992 11 7 6
-5.754192 -2.190500 -174.847794 19 17 16
-5.847759 -2.190500 -174.847794 33 31 30
-5.941326 -2.190500 -174.847794 26 24 23
-6.034894 -2.190500 -174.847794 12 10 9
-6.128461 -2.190500 -174.847794 6 6 6
-6.185853 -2.177765 -173.831238 3 3 3
-6.315595 -2.190500 -174.847794 6 8 8
-6.371900 -2.177765 -173.831238 0 2 2
-17.445383 -4.512958 -360.228577 14 14 14
-17.223139 -4.406771 -351.752625 19 17 17
-11.999744 -2.881350 -229.992096 19 18 14
-12.030281 -2.859355 -228.236435 19 18 14
-12.060354 -2.837693 -226.507370 19 18 14
-12.464859 -2.903686 -231.774979 18 17 13
-12.687241 -2.926371 -233.585724 20 19 15
-12.712921 -2.903686 -231.774979 22 21 17
-12.357961 -2.795340 -223.126663 22 19 14
3.801095 -0.346870 -26.553261 99 31 26
3.415075 -0.330157 -25.273857 227 18 26
3.387233 -0.328767 -25.167486 214 16 22
3.365267 -0.327939 -25.104092 193 14 17
3.349021 -0.327664 -25.083031 161 12 15
3.332802 -0.327389 -25.062006 118 5 9
3.316611 -0.327115 -25.041016 83 8 10
3.297687 -0.326568 -24.999142 43 8 5
3.281565 -0.326295 -24.978256 20 8 4
3.268198 -0.326295 -24.978256 17 10 7
3.257553 -0.326568 -24.999142 12 8 7
3.246890 -0.326841 -25.020061 11 6 7
3.236209 -0.327115 -25.041016 15 12 14
3.220111 -0.326841 -25.020061 4 8 9
3.206722 -0.326841 -25.020061 2 7 8
3.563120 -0.367774 -28.153458 13 6 3
3.548054 -0.367774 -28.153458 19 7 3
3.532988 -0.367774 -28.153458 25 10 7
3.517922 -0.367774 -28.153458 44 22 17
3.499561 -0.367428 -28.126974 65 24 22
3.484509 -0.367428 -28.126974 76 24 24
3.475997 -0.368120 -28.179993 78 21 22
3.460917 -0.368120 -28.179993 75 15 16
3.354869 -0.359977 -27.556656 84 16 17
3.300577 -0.355715 -27.230394 86 13 15
3.265188 -0.353462 -27.057894 90 15 17
3.236066 -0.351870 -26.936012 93 15 16
3.218752 -0.351553 -26.911766 96 12 14
3.201469 -0.351237 -26.887566 104 14 14
3.189949 -0.351553 -26.911766 109 13 13
3.184145 -0.352505 -26.984632 106 5 3
3.166847 -0.352187 -26.960300 110 2 1
3.141090 -0.350921 -26.863407 115 4 2
3.112731 -0.349352 -26.743267 117 1 0
3.070951 -0.346255 -26.506182 120 2 1
3.040594 -0.344423 -26.365936 122 2 2
3.013199 -0.342911 -26.250195 121 1 1
3.004427 -0.343514 -26.296370 119 0 0
2.995624 -0.344119 -26.342707 119 0 1
2.981527 -0.344119 -26.342707 119 5 5
2.967430 -0.344119 -26.342707 118 9 11
1.872092 -0.316255 -24.209694 219 27 34
13.915727 -2.750532 -210.556152 232 31 34
13.803051 -2.750532 -210.556152 237 33 38
13.690374 -2.750532 -210.556152 234 28 33
1.639087 -0.340519 -26.067108 225 11 17
1.627977 -0.341114 -26.112640 231 14 21
1.591760 -0.336413 -25.752775 227 10 17
1.555206 -0.331558 -25.381132 227 10 17
1.555184 -0.353142 -27.033430 229 15 21
1.540717 -0.353142 -27.033430 228 14 20
1.524872 -0.352823 -27.009008 225 13 19
1.481782 -0.356365 -27.280085 232 31 35
6.199278 -1.690803 -129.432785 7 8 6
6.349925 -1.751460 -134.076111 4 5 1
6.278176 -1.751460 -134.076111 10 11 7
6.151258 -1.735891 -132.884323 12 10 9
6.080148 -1.735891 -132.884323 7 5 5
5.956093 -1.720597 -131.713531 17 12 14
5.885609 -1.720597 -131.713531 48 43 44
5.815124 -1.720597 -131.713531 63 61 61
7.796390 -2.487742 -190.439316 14 13 9
7.793763 -2.519842 -192.896591 4 5 3
7.592568 -2.487742 -190.439316 3 3 3
7.636579 -2.536205 -194.149170 5 5 5
7.581916 -2.552781 -195.418121 10 10 10
7.576379 -2.586593 -198.006439 8 8 8
7.421271 -2.569576 -196.703766 6 6 6
7.364458 -2.586593 -198.006439 6 6 6
7.258498 -2.586593 -198.006439 0 0 0
7.152538 -2.586593 -198.006439 4 4 4
7.046577 -2.586593 -198.006439 4 4 4
6.940617 -2.586593 -198.006439 2 2 2
6.880221 -2.603837 -199.326477 4 4 4
6.959132 -2.675175 -204.787491 3 3 3
4.375874 -2.157876 -165.187698 9 5 4
4.263919 -2.146019 -164.280075 21 16 13
0.857184 -0.481004 -36.821396 17 14 10
0.825283 -0.473999 -36.285160 11 9 8
0.844593 -0.749665 -57.387665 30 25 26
0.813883 -0.749665 -57.387665 38 34 33
0.781673 -0.748229 -57.277725 50 46 45
0.753910 -0.751107 -57.498024 33 30 26
0.720370 -0.748229 -57.277725 51 48 43
0.678029 -0.735547 -56.306915 39 36 32
0.657807 -0.746798 -57.168209 43 40 36
0.628416 -0.748229 -57.277725 44 42 41
0.597765 -0.748229 -57.277725 39 37 36
0.567113 -0.748229 -57.277725 40 38 37
0.535436 -0.746798 -57.168209 41 39 38
0.505811 -0.748229 -57.277725 17 15 14
0.476987 -0.751107 -57.498024 17 15 14
0.448807 -0.755465 -57.831669 20 18 17
0.417859 -0.755465 -57.831669 21 19 18
0.383205 -0.748229 -57.277725 24 22 21
0.346579 -0.735547 -56.306915 16 14 13
0.317044 -0.736935 -56.413155 15 13 13
0.288488 -0.741130 -56.734295 16 14 14
-0.172484 -0.765834 -58.625435 16 14 14
-0.199170 -0.748229 -57.277725 19 17 17
-0.225926 -0.735547 -56.306915 18 16 15
-0.255097 -0.732787 -56.095634 18 16 15
-0.442685 -0.745373 -57.059109 30 28 27
-0.595356 -0.745373 -57.059109 21 17 16
-0.621149 -0.739726 -56.626842 18 14 13
-0.647772 -0.735547 -56.306915 27 22 23
-0.676629 -0.734164 -56.201077 28 23 24
-1.279319 -0.752554 -57.608810 44 40 39
-1.312677 -0.754007 -57.720024 43 39 38
-1.354021 -0.759875 -58.169209 37 32 31
-1.385149 -0.759875 -58.169209 38 33 32
-5.685326 -2.456450 -188.043854 14 9 10
-5.609554 -2.381558 -182.310806 17 12 13
-5.604591 -2.338775 -179.035767 25 20 21
-5.700400 -2.338775 -179.035767 20 18 17
-5.727614 -2.311098 -176.916992 25 23 22
-5.788040 -2.297503 -175.876312 42 40 39
-5.882158 -2.297503 -175.876312 47 45 44
-5.941326 -2.284067 -174.847794 10 11 9
-6.034894 -2.284067 -174.847794 8 9 7
-6.128461 -2.284067 -174.847794 5 5 5
-6.222028 -2.284067 -174.847794 4 4 4
-6.352746 -2.297503 -175.876312 3 5 5
-6.371900 -2.270788 -173.831238 4 6 6
-7.176953 -2.231860 -170.851273 1 3 3
-7.145881 -2.194244 -167.971756 2 4 4
-7.115839 -2.157876 -165.187698 1 3 3
-17.034903 -4.595006 -351.752625 13 13 13
-16.827204 -4.489374 -343.666351 20 18 18
-13.096506 -3.149802 -241.120743 20 19 15
-13.015610 -3.099806 -237.293427 22 21 17
3.362444 -0.341087 -25.083031 218 17 21
3.346214 -0.340801 -25.062006 195 12 16
3.332802 -0.340801 -25.062006 169 14 18
3.316611 -0.340515 -25.041016 131 11 12
3.300446 -0.340231 -25.020061 89 12 9
3.281565 -0.339662 -24.978256 60 15 11
3.268198 -0.339662 -24.978256 40 13 9
3.257553 -0.339946 -24.999142 23 10 8
3.246890 -0.340231 -25.020061 18 10 10
3.236209 -0.340515 -25.041016 14 11 13
3.220111 -0.340231 -25.020061 11 13 14
3.204041 -0.339946 -24.999142 7 10 14
3.190663 -0.339946 -24.999142 9 11 12
3.514613 -0.382479 -28.126974 39 16 14
3.499561 -0.382479 -28.126974 59 19 20
3.262236 -0.367609 -27.033430 91 18 20
3.233153 -0.365955 -26.911766 93 17 18
3.215857 -0.365625 -26.887566 96 13 15
3.175547 -0.365955 -26.911766 109 5 6
3.161146 -0.365955 -26.911766 111 1 1
3.135456 -0.364642 -26.815222 117 3 3
3.098872 -0.362044 -26.624197 119 3 2
3.065516 -0.359801 -26.459269 121 3 2
3.032571 -0.357586 -26.296370 121 1 1
3.007917 -0.356333 -26.204184 123 1 1
2.996520 -0.356645 -26.227169 122 2 2
2.985104 -0.356958 -26.250195 120 1 2
2.971056 -0.356958 -26.250195 114 2 2
2.954415 -0.356645 -26.227169 113 6 8
2.940380 -0.356645 -26.227169 113 13 13
2.143111 -0.323192 -23.767069 185 15 21
1.886575 -0.329478 -24.229313 218 27 36
1.867555 -0.328413 -24.151028 219 27 34
14.014420 -2.883514 -212.049454 235 34 37
13.900945 -2.883514 -212.049454 238 34 39
13.690374 -2.863208 -210.556152 234 28 33
1.643010 -0.352318 -25.908989 228 14 20
1.639087 -0.354469 -26.067108 227 13 19
1.545403 -0.365297 -26.863407 232 18 24
1.531027 -0.365297 -26.863407 230 16 22
1.515290 -0.364969 -26.839293 227 15 21
1.483135 -0.371302 -27.304998 231 30 34
6.321577 -1.815069 -133.477554 7 8 6
6.250148 -1.815069 -133.477554 10 11 9
6.151258 -1.807002 -132.884323 9 7 7
6.053244 -1.799007 -132.296341 8 6 6
5.929970 -1.783226 -131.135849 10 5 7
5.859795 -1.783226 -131.135849 46 41 42
5.764337 -1.775439 -130.563202 23 21 20
7.793763 -2.623068 -192.896591 9 11 11
7.592568 -2.589653 -190.439316 8 8 8
7.587311 -2.623068 -192.896591 9 9 9
7.532683 -2.640101 -194.149170 12 12 12
7.477341 -2.657356 -195.418121 16 16 16
7.372766 -2.657356 -195.418121 20 20 20
7.268191 -2.657356 -195.418121 16 16 16
7.163616 -2.657356 -195.418121 5 5 5
7.059041 -2.657356 -195.418121 4 4 4
6.954465 -2.657356 -195.418121 6 6 6
6.849890 -2.657356 -195.418121 4 4 4
6.789692 -2.674839 -196.703766 3 3 3
4.400185 -2.258753 -166.105408 8 4 3
4.287476 -2.246274 -165.187698 14 9 6
0.858241 -0.501326 -36.866798 15 12 8
0.827291 -0.494617 -36.373447 10 8 7
0.528664 -0.358216 -26.342707 7 7 7
0.844593 -0.780375 -57.387665 29 24 25
0.813883 -0.780375 -57.387665 45 41 40
0.783173 -0.780375 -57.387665 29 26 22
0.755363 -0.783382 -57.608810 52 49 45
0.721753 -0.780375 -57.387665 38 35 30
0.683175 -0.771491 -56.734295 50 47 43
0.657807 -0.777391 -57.168209 45 42 38
0.628416 -0.778880 -57.277725 30 28 27
0.597765 -0.778880 -57.277725 42 40 39
0.567113 -0.778880 -57.277725 40 38 37
0.535436 -0.777391 -57.168209 34 32 31
0.505811 -0.778880 -57.277725 14 12 11
0.476071 -0.780375 -57.387665 14 12 11
0.449677 -0.787937 -57.943745 24 22 21
0.416249 -0.783382 -57.608810 19 17 16
0.382473 -0.777391 -57.168209 22 20 19
0.345927 -0.764240 -56.201077 24 22 21
0.317643 -0.768574 -56.519798 16 14 14
0.288488 -0.771491 -56.734295 18 16 16
-0.172146 -0.795647 -58.510708 20 18 18
-0.198789 -0.777391 -57.168209 16 14 14
-0.225078 -0.762806 -56.095634 36 34 33
-0.594222 -0.774430 -56.950424 29 25 24
-0.621149 -0.770029 -56.626842 44 40 39
-0.646554 -0.764240 -56.201077 32 27 28
-1.276859 -0.781876 -57.498024 44 40 39
-1.315216 -0.786413 -57.831669 39 35 34
-1.356660 -0.792545 -58.282597 53 45 45
-1.390560 -0.794093 -58.396431 45 37 37
-5.604591 -2.434584 -179.035767 31 26 27
-5.734740 -2.449250 -180.114288 29 27 26
-5.761707 -2.420092 -177.970078 37 35 34
-5.788040 -2.391621 -175.876312 36 34 33
-5.882158 -2.391621 -175.876312 16 14 13
-5.941326 -2.377635 -174.847794 9 10 8
-6.070393 -2.391621 -175.876312 7 8 6
-6.164511 -2.391621 -175.876312 4 4 4
-6.258628 -2.391621 -175.876312 2 2 2
-7.259923 -2.350147 -172.826431 2 4 4
-7.310154 -2.336641 -171.833176 4 6 6
-7.235768 -2.284132 -167.971756 3 5 5
-7.125502 -2.221724 -163.382370 3 5 6
-16.635986 -4.620176 -339.761047 18 16 16
3.772676 -0.375289 -26.553261 99 17 16
3.349021 -0.354510 -25.083031 215 20 22
3.332802 -0.354212 -25.062006 203 18 20
3.319391 -0.354212 -25.062006 177 11 12
3.303210 -0.353916 -25.041016 150 10 9
3.287057 -0.353620 -25.020061 111 11 7
3.270931 -0.353324 -24.999142 60 5 0
3.260279 -0.353620 -25.020061 28 2 0
3.249609 -0.353916 -25.041016 17 4 2
3.238921 -0.354212 -25.062006 9 4 3
3.222808 -0.353916 -25.041016 10 5 7
3.209408 -0.353916 -25.041016 9 4 6
3.196008 -0.353916 -25.041016 9 5 10
3.262236 -0.382075 -27.033430 84 16 17
3.230246 -0.380014 -26.887566 93 19 19
3.172692 -0.380014 -26.887566 108 4 5
3.158303 -0.380014 -26.887566 112 0 0
3.129842 -0.378313 -26.767210 118 1 2
3.090616 -0.375289 -26.553261 121 3 2
3.060100 -0.373300 -26.412519 121 1 1
3.027246 -0.371006 -26.250195 120 1 0
3.005283 -0.370031 -26.181236 122 0 0
2.993894 -0.370355 -26.204184 122 2 2
2.979871 -0.370355 -26.204184 119 2 3
2.965848 -0.370355 -26.204184 113 3 3
2.951826 -0.370355 -26.204184 111 7 8
2.937803 -0.370355 -26.204184 110 12 12
2.926345 -0.370680 -26.227169 108 11 13
2.141408 -0.335644 -23.748192 184 16 22
2.127011 -0.335377 -23.729343 184 16 22
1.866048 -0.341062 -24.131536 216 25 32
1.644435 -0.366501 -25.931459 225 10 19
1.639087 -0.368418 -26.067108 225 10 19
1.555585 -0.378652 -26.791195 229 15 21
1.541248 -0.378652 -26.791195 230 16 22
1.526911 -0.378652 -26.791195 227 15 21
1.512575 -0.378652 -26.791195 226 14 20
1.499581 -0.378991 -26.815222 224 15 19
1.484491 -0.386266 -27.329956 229 29 36
5.879652 -1.697090 -120.076195 10 4 5
5.886314 -1.717787 -121.540543 9 4 5
5.868989 -1.731867 -122.536774 8 6 5
6.238032 -1.861566 -131.713531 7 8 6
6.194837 -1.869803 -132.296341 4 5 3
6.124041 -1.869803 -132.296341 9 9 9
6.000145 -1.853401 -131.135849 12 9 11
5.904075 -1.845308 -130.563202 8 3 5
5.834206 -1.845308 -130.563202 28 23 24
5.739275 -1.837285 -129.995529 28 24 23
7.793763 -2.726294 -192.896591 0 4 3
7.641239 -2.708817 -191.660080 11 13 13
7.587311 -2.726294 -192.896591 6 6 6
7.532683 -2.743997 -194.149170 8 8 8
7.428787 -2.743997 -194.149170 9 9 9
7.324891 -2.743997 -194.149170 11 11 11
7.268191 -2.761931 -195.418121 10 10 10
7.163616 -2.761931 -195.418121 8 8 8
7.013203 -2.743997 -194.149170 2 2 2
6.909307 -2.743997 -194.149170 2 2 2
6.805410 -2.743997 -194.149170 4 4 4
4.682007 -2.400997 -169.880524 1 3 3
4.539512 -2.374020 -167.971756 5 3 2
4.424767 -2.360757 -167.033371 10 6 5
4.335381 -2.360757 -167.033371 7 2 0
4.245996 -2.360757 -167.033371 64 58 53
0.858241 -0.521055 -36.866798 18 15 11
0.830321 -0.515965 -36.506683 11 9 8
0.526345 -0.370680 -26.227169 8 9 7
0.813883 -0.811085 -57.387665 24 22 21
0.781673 -0.809532 -57.277725 55 52 48
0.752463 -0.811085 -57.387665 35 32 28
0.720370 -0.809532 -57.277725 45 41 36
0.685778 -0.804906 -56.950424 45 42 38
0.656552 -0.806442 -57.059109 40 37 33
0.627215 -0.807984 -57.168209 37 33 32
0.594349 -0.804906 -56.950424 43 39 38
0.563873 -0.804906 -56.950424 31 27 26
0.534415 -0.806442 -57.059109 42 38 37
0.503880 -0.806442 -57.059109 16 15 11
0.475159 -0.809532 -57.277725 16 15 11
0.448807 -0.817361 -57.831669 21 20 16
0.415448 -0.812645 -57.498024 23 22 18
0.381016 -0.804906 -56.950424 25 22 18
0.319455 -0.803375 -56.842152 17 13 12
0.289587 -0.804906 -56.950424 17 13 12
-1.246090 -0.812645 -57.498024 42 40 39
-1.281789 -0.815783 -57.720024 40 36 35
-1.317765 -0.818945 -57.943745 48 44 43
-1.359310 -0.825343 -58.396431 40 32 32
-1.390560 -0.825343 -58.396431 40 32 32
-5.666469 -2.515330 -177.970078 14 12 11
-5.761707 -2.515330 -177.970078 12 10 9
-5.788040 -2.485738 -175.876312 11 12 10
-5.847759 -2.471202 -174.847794 5 6 4
-5.976275 -2.485738 -175.876312 7 8 6
-7.126246 -2.428595 -171.833176 2 4 4
-7.259923 -2.442633 -172.826431 2 4 4
-7.352409 -2.442633 -172.826431 2 4 4
-7.276649 -2.387432 -168.920746 2 4 4
-7.125502 -2.309156 -163.382370 2 4 4
-6.679089 -1.993281 -141.032883 6 6 6
3.776030 -0.389845 -26.576864 98 34 33
3.755131 -0.389153 -26.529701 98 19 16
3.341204 -0.368551 -25.125187 220 20 21
3.303210 -0.367316 -25.041016 192 16 16
3.289810 -0.367316 -25.041016 159 13 13
3.273668 -0.367009 -25.020061 110 10 6
3.260279 -0.367009 -25.020061 71 4 1
3.249609 -0.367316 -25.041016 45 2 0
3.236209 -0.367316 -25.041016 27 0 0
3.220111 -0.367009 -25.020061 25 4 6
3.204041 -0.366702 -24.999142 17 4 6
3.190663 -0.366702 -24.999142 15 6 9
3.177285 -0.366702 -24.999142 12 5 8
3.265188 -0.396901 -27.057894 77 13 13
3.158303 -0.394402 -26.887566 112 0 2
3.121458 -0.391585 -26.695511 118 1 2
3.085136 -0.388808 -26.506182 119 1 0
3.052012 -0.386410 -26.342707 120 0 0
3.024590 -0.384715 -26.227169 120 1 0
3.005283 -0.384042 -26.181236 120 0 0
2.991272 -0.384042 -26.181236 119 0 0
2.977262 -0.384042 -26.181236 118 1 2
2.963252 -0.384042 -26.181236 119 7 7
2.949241 -0.384042 -26.181236 114 10 11
2.935230 -0.384042 -26.181236 110 10 10
2.923780 -0.384378 -26.204184 112 15 17
2.132938 -0.346974 -23.654251 180 15 20
2.121958 -0.347249 -23.672979 179 14 19
1.848658 -0.353120 -24.073246 215 25 30
1.828415 -0.351704 -23.976723 218 27 32
1.644435 -0.380378 -25.931459 226 11 20
1.639087 -0.382367 -26.067108 226 11 20
1.560136 -0.390539 -26.624197 229 12 19
1.550030 -0.391585 -26.695511 228 14 20
1.535744 -0.391585 -26.695511 229 15 21
1.521458 -0.391585 -26.695511 226 14 20
1.508519 -0.391935 -26.719368 225 15 21
1.496896 -0.392637 -26.767210 224 16 20
1.485232 -0.393341 -26.815222 229 26 29
6.177355 -1.850530 -126.156006 11 5 6
6.033472 -1.827398 -124.579056 9 4 5
5.966805 -1.827398 -124.579056 5 3 3
6.210672 -1.923577 -131.135849 6 7 5
6.113682 -1.915177 -130.563202 7 7 7
6.070321 -1.923577 -131.135849 6 5 7
5.973944 -1.915177 -130.563202 10 7 9
5.878405 -1.906850 -129.995529 15 10 12
5.808840 -1.906850 -129.995529 31 26 27
5.714429 -1.898595 -129.432785 52 48 47
7.641239 -2.811381 -191.660080 5 7 7
7.636579 -2.847893 -194.149170 5 5 5
7.484085 -2.829519 -192.896591 14 14 14
7.428787 -2.847893 -194.149170 21 21 21
7.277634 -2.829519 -192.896591 11 11 11
7.220995 -2.847893 -194.149170 5 5 5
7.117099 -2.847893 -194.149170 27 27 27
7.013203 -2.847893 -194.149170 20 20 20
6.864730 -2.829519 -192.896591 3 3 3
6.761505 -2.829519 -192.896591 3 3 3
0.770347 -0.387434 -26.412519 4 3 5
4.883914 -2.549858 -173.831238 1 3 3
4.735823 -2.520549 -171.833176 2 4 4
4.617332 -2.506146 -170.851273 6 4 3
4.500189 -2.491906 -169.880524 12 9 5
4.384368 -2.477828 -168.920746 6 1 0
4.293973 -2.477828 -168.920746 60 54 49
0.542283 -0.386070 -26.319519 6 7 5
0.525884 -0.384378 -26.204184 7 8 6
0.510073 -0.383035 -26.112640 7 7 7
0.813883 -0.841796 -57.387665 48 46 45
0.781673 -0.840183 -57.277725 32 31 27
0.752463 -0.841796 -57.387665 41 37 32
0.720370 -0.840183 -57.277725 42 38 33
0.687086 -0.836976 -57.059109 41 36 33
0.651578 -0.830635 -56.626842 44 41 37
0.621275 -0.830635 -56.626842 47 43 42
0.588742 -0.827501 -56.413155 35 31 30
0.556453 -0.824390 -56.201077 50 46 45
0.529363 -0.829065 -56.519798 28 24 23
0.501012 -0.832212 -56.734295 16 15 11
0.473346 -0.836976 -57.059109 19 18 14
0.379570 -0.832212 -56.734295 41 38 34
-1.248491 -0.845039 -57.608810 33 31 30
-1.284268 -0.848309 -57.831669 50 46 45
-1.320324 -0.851603 -58.056259 44 39 38
-1.359310 -0.856593 -58.396431 44 36 36
-1.390560 -0.856593 -58.396431 52 44 44
-5.788040 -2.579856 -175.876312 10 11 9
-5.847759 -2.564769 -174.847794 9 10 8
-6.298660 -2.520549 -171.833176 4 6 6
-7.259923 -2.535119 -172.826431 1 3 3
-7.352409 -2.535119 -172.826431 1 3 3
-7.317993 -2.491906 -169.880524 3 5 5
-7.164653 -2.409755 -164.280075 3 5 5
-6.730609 -2.108536 -143.745056 4 4 4
-6.710743 -2.078557 -141.701294 6 6 6
3.776030 -0.404067 -26.576864 81 36 33
3.755131 -0.403350 -26.529701 94 31 27
3.737618 -0.402992 -26.506182 100 17 15
3.336169 -0.382962 -25.188688 223 25 26
3.311531 -0.381675 -25.104092 210 20 21
3.292568 -0.381036 -25.062006 192 13 14
3.276410 -0.380717 -25.041016 175 12 14
3.263009 -0.380717 -25.041016 145 9 11
3.252333 -0.381036 -25.062006 106 6 6
3.236209 -0.380717 -25.041016 76 6 6
3.220111 -0.380398 -25.020061 50 6 5
3.204041 -0.380080 -24.999142 29 6 4
3.190663 -0.380080 -24.999142 19 6 4
3.177285 -0.380080 -24.999142 14 6 6
3.166555 -0.380398 -25.020061 13 8 9
3.158303 -0.408791 -26.887566 111 2 4
3.113120 -0.404787 -26.624197 117 3 3
3.076952 -0.401924 -26.435873 116 0 0
3.041293 -0.399101 -26.250195 119 1 0
3.019294 -0.398052 -26.181236 120 3 0
3.002654 -0.397704 -26.158331 120 0 0
2.988656 -0.397704 -26.158331 119 0 0
2.974657 -0.397704 -26.158331 118 1 2
2.960659 -0.397704 -26.158331 119 7 7
2.946661 -0.397704 -26.158331 117 10 12
2.935230 -0.398052 -26.181236 113 11 12
2.923780 -0.398401 -26.204184 116 15 17
2.127887 -0.358781 -23.598242 182 18 23
2.118603 -0.359348 -23.635551 182 17 22
1.850148 -0.366298 -24.092646 219 29 34
1.828415 -0.364535 -23.976723 218 28 33
1.644435 -0.394255 -25.931459 227 13 19
1.640518 -0.396663 -26.089853 227 13 19
1.580189 -0.402636 -26.482704 232 15 22
1.568796 -0.403350 -26.529701 231 14 21
1.557363 -0.404067 -26.576864 230 13 20
1.544514 -0.404427 -26.600510 229 15 21
1.530279 -0.404427 -26.600510 227 13 19
1.516044 -0.404427 -26.600510 225 13 19
1.503146 -0.404787 -26.624197 225 15 21
1.492887 -0.405871 -26.695511 228 23 26
1.483901 -0.407326 -26.791195 231 30 33
6.229928 -1.934364 -127.229668 10 5 7
6.033472 -1.894065 -124.579056 8 6 6
5.845034 -1.855410 -122.036621 6 4 4
6.156666 -1.976415 -129.995529 11 9 8
6.087101 -1.976415 -129.995529 11 9 9
6.043813 -1.985046 -130.563202 7 4 6
5.973944 -1.985046 -130.563202 8 4 9
5.878405 -1.976415 -129.995529 9 4 6
5.808840 -1.976415 -129.995529 69 63 64
5.714429 -1.967859 -129.432785 68 63 60
5.620833 -1.959377 -128.874878 26 22 17
5.389971 -1.926167 -126.690559 36 35 31
7.641239 -2.913945 -191.660080 24 24 24
7.538674 -2.913945 -191.660080 34 32 32
7.295806 -2.858965 -188.043854 25 25 25
7.333546 -2.913945 -191.660080 24 24 24
7.184925 -2.895385 -190.439316 35 35 35
7.128418 -2.913945 -191.660080 40 40 40
7.025854 -2.913945 -191.660080 30 30 30
6.923290 -2.913945 -191.660080 7 7 7
6.820725 -2.913945 -191.660080 1 1 1
6.675371 -2.895385 -190.439316 2 2 2
0.770347 -0.401568 -26.412519 4 3 5
4.790891 -2.642881 -173.831238 1 3 3
4.643869 -2.612503 -171.833176 6 4 3
4.525904 -2.597574 -170.851273 11 8 4
4.434475 -2.597574 -170.851273 9 4 1
0.525423 -0.398052 -26.181236 9 10 8
0.812324 -0.870834 -57.277725 28 29 27
0.781673 -0.870834 -57.277725 48 47 43
0.751021 -0.870834 -57.277725 45 41 36
0.720370 -0.870834 -57.277725 39 35 30
0.687086 -0.867510 -57.059109 43 38 35
0.651578 -0.860938 -56.626842 46 41 38
0.615447 -0.852862 -56.095634 35 30 29
0.584332 -0.851265 -55.990585 53 48 47
-1.248491 -0.875868 -57.608810 46 45 41
-1.284268 -0.879256 -57.831669 35 32 28
-1.322893 -0.884388 -58.169209 41 36 33
-1.359310 -0.887843 -58.396431 49 42 39
-1.390560 -0.887843 -58.396431 43 34 31
-6.191903 -2.568223 -168.920746 6 6 6
-6.317993 -2.582815 -169.880524 5 5 5
-7.352409 -2.627604 -172.826431 1 3 3
-7.317993 -2.582815 -169.880524 3 5 5
-7.204237 -2.511467 -165.187698 5 5 5
3.776030 -0.418289 -26.576864 48 21 17
3.755131 -0.417547 -26.529701 84 37 33
3.737618 -0.417177 -26.506182 97 30 27
3.306425 -0.396107 -25.167486 216 18 22
3.284663 -0.395110 -25.104092 210 14 20
3.268484 -0.394778 -25.083031 189 9 14
3.255061 -0.394778 -25.083031 156 7 10
3.238921 -0.394447 -25.062006 131 12 13
3.222808 -0.394117 -25.041016 96 6 5
3.206722 -0.393787 -25.020061 69 4 3
3.193333 -0.393787 -25.020061 48 2 1
3.179944 -0.393787 -25.020061 32 1 0
3.169207 -0.394117 -25.041016 23 2 1
3.161146 -0.423560 -26.911766 107 3 4
3.107585 -0.418289 -26.576864 112 2 4
3.060715 -0.413875 -26.296370 114 0 0
3.035963 -0.412424 -26.204184 115 2 0
3.019294 -0.412063 -26.181236 118 3 0
3.002654 -0.411702 -26.158331 121 3 2
2.988656 -0.411702 -26.158331 122 4 3
2.974657 -0.411702 -26.158331 121 2 3
2.960659 -0.411702 -26.158331 117 3 3
2.946661 -0.411702 -26.158331 117 8 10
2.932662 -0.411702 -26.158331 119 15 16
2.926345 -0.412786 -26.227169 114 11 14
1.831352 -0.377972 -24.015240 220 30 35
1.578790 -0.416438 -26.459269 231 14 21
1.568796 -0.417547 -26.529701 231 14 21
1.555980 -0.417918 -26.553261 231 14 21
1.541770 -0.417918 -26.553261 229 15 21
1.527561 -0.417918 -26.553261 227 13 19
1.513351 -0.417918 -26.553261 225 13 19
1.501809 -0.418661 -26.600510 226 16 22
1.490226 -0.419408 -26.647926 231 28 31
1.481246 -0.420908 -26.743267 231 33 35
3.078190 -0.919093 -58.396431 206 15 18
3.041000 -0.917301 -58.282597 183 12 14
3.009811 -0.917301 -58.282597 141 7 7
6.256552 -2.011006 -127.773384 6 3 5
6.084173 -1.977208 -125.625938 6 4 4
6.042334 -1.985551 -126.156006 8 6 6
6.183551 -2.054915 -130.563202 7 5 4
6.087101 -2.045980 -129.995529 9 7 7
6.017536 -2.045980 -129.995529 10 7 9
5.973944 -2.054915 -130.563202 17 11 16
5.904075 -2.054915 -130.563202 9 2 5
5.834206 -2.054915 -130.563202 62 54 55
5.739275 -2.045980 -129.995529 83 76 73
5.620833 -2.028343 -128.874878 40 36 31
5.551867 -2.028343 -128.874878 22 22 16
5.412907 -2.002449 -127.229668 62 61 57
5.299718 -1.985551 -126.156006 45 40 39
7.304554 -2.922829 -185.707901 10 8 8
7.073373 -2.869363 -182.310806 8 8 8
7.150208 -2.941097 -186.868576 6 6 6
7.006417 -2.922829 -185.707901 9 9 9
6.907039 -2.922829 -185.707901 23 23 23
6.893291 -2.959594 -188.043854 34 34 34
6.792662 -2.959594 -188.043854 17 17 17
6.650208 -2.941097 -186.868576 2 2 2
6.469341 -2.904787 -184.561554 6 6 6
0.769667 -0.415336 -26.389208 3 2 4
4.697867 -2.735904 -173.831238 4 2 1
4.578227 -2.720090 -172.826431 8 5 1
4.459961 -2.704457 -171.833176 7 2 0
0.812324 -0.901486 -57.277725 33 34 32
0.781673 -0.901486 -57.277725 48 47 43
0.749585 -0.899762 -57.168209 34 30 25
0.720370 -0.901486 -57.277725 48 42 35
0.687086 -0.898045 -57.059109 45 40 37
0.650346 -0.889557 -56.519798 31 26 23
0.610863 -0.876304 -55.677788 55 50 49
0.574647 -0.866622 -55.062565 30 25 24
-1.217662 -0.906697 -57.608810 37 38 34
-1.253321 -0.910204 -57.831669 24 23 19
-1.286757 -0.911968 -57.943745 46 43 39
-1.325471 -0.917301 -58.282597 45 38 35
-1.359310 -0.919093 -58.396431 44 35 32
-1.390560 -0.919093 -58.396431 54 45 42
-1.421810 -0.919093 -58.396431 48 38 38
-1.453060 -0.919093 -58.396431 37 29 29
-7.095858 -2.658619 -168.920746 2 4 4
-7.186253 -2.658619 -168.920746 2 4 4
-7.195345 -2.628913 -167.033371 2 4 4
-7.164653 -2.585580 -164.280075 3 3 3
-7.830512 -2.489817 -158.195618 17 15 14
-7.915168 -2.489817 -158.195618 15 13 12
-7.999825 -2.489817 -158.195618 13 11 10
-8.127483 -2.503061 -159.037094 17 15 14
-8.212589 -2.503061 -159.037094 14 13 9
3.772676 -0.432127 -26.553261 30 18 14
3.751802 -0.431361 -26.506182 53 24 19
3.734308 -0.430979 -26.482704 84 37 33
3.298510 -0.410266 -25.209927 228 28 35
3.276731 -0.409231 -25.146318 214 18 24
3.260532 -0.408887 -25.125187 202 12 17
3.244360 -0.408544 -25.104092 189 11 16
3.225510 -0.407859 -25.062006 170 11 15
3.212098 -0.407859 -25.062006 143 8 10
3.196008 -0.407517 -25.041016 112 5 7
3.182607 -0.407517 -25.041016 83 3 4
3.169207 -0.407517 -25.041016 57 1 0
3.161146 -0.437962 -26.911766 102 2 2
3.104825 -0.432127 -26.553261 107 0 2
3.049985 -0.426447 -26.204184 111 1 1
3.030650 -0.425700 -26.158331 114 3 1
3.016652 -0.425700 -26.158331 116 3 0
3.000029 -0.425328 -26.135466 121 3 2
2.986043 -0.425328 -26.135466 122 4 3
2.969461 -0.424957 -26.112640 122 3 4
2.955487 -0.424957 -26.112640 120 3 4
2.944085 -0.425328 -26.135466 118 8 10
2.930099 -0.425328 -26.135466 123 14 16
1.600029 -0.428701 -26.342707 230 13 20
1.592950 -0.430598 -26.459269 231 14 21
1.581590 -0.431361 -26.506182 232 15 22
1.568796 -0.431744 -26.529701 230 16 22
1.555980 -0.432127 -26.553261 231 17 23
1.541770 -0.432127 -26.553261 231 17 23
1.527561 -0.432127 -26.553261 230 16 22
1.513351 -0.432127 -26.553261 230 18 24
1.500474 -0.432512 -26.576864 233 25 30
1.488899 -0.433282 -26.624197 232 31 34
1.479922 -0.434831 -26.719368 232 35 37
6.214735 -2.088307 -128.321777 2 2 2
6.183551 -2.124784 -130.563202 6 4 3
6.087101 -2.115546 -129.995529 15 10 11
6.017536 -2.115546 -129.995529 11 8 10
5.973944 -2.124784 -130.563202 22 16 21
5.904075 -2.124784 -130.563202 21 14 17
5.834206 -2.124784 -130.563202 16 8 9
5.714429 -2.106387 -129.432785 81 72 69
5.596709 -2.088307 -128.321777 73 67 62
5.528039 -2.088307 -128.321777 11 8 3
5.412907 -2.070534 -127.229668 54 53 49
5.322175 -2.061761 -126.690559 53 47 48
7.214928 -2.985126 -183.429276 6 4 4
7.030504 -2.948942 -181.205902 2 2 2
7.018609 -2.985126 -183.429276 6 6 6
6.920449 -2.985126 -183.429276 3 3 3
6.822289 -2.985126 -183.429276 4 4 4
6.765637 -3.003552 -184.561554 12 12 12
6.666872 -3.003552 -184.561554 22 22 22
6.527811 -2.985126 -183.429276 13 13 13
6.390446 -2.966924 -182.310806 0 0 0
0.782154 -0.453050 -27.838894 2 2 2
4.604844 -2.828927 -173.831238 8 5 1
4.511821 -2.828927 -173.831238 8 3 0
0.813883 -0.933926 -57.387665 32 33 31
0.781673 -0.932137 -57.277725 35 34 30
0.749585 -0.930355 -57.168209 46 42 37
0.720370 -0.932137 -57.277725 44 38 31
0.687086 -0.928579 -57.059109 36 29 26
0.652814 -0.923293 -56.734295 56 49 46
0.608596 -0.902737 -55.471191 40 35 34
0.523027 -0.859674 -52.825039 47 42 41
-1.253321 -0.941152 -57.831669 34 35 31
-1.286757 -0.942976 -57.943745 39 36 32
-1.325471 -0.948490 -58.282597 37 30 27
-1.359310 -0.950343 -58.396431 50 41 38
-1.390560 -0.950343 -58.396431 47 35 33
-1.421810 -0.950343 -58.396431 51 41 41
-1.453060 -0.950343 -58.396431 48 40 40
-1.487215 -0.952203 -58.510708 18 13 12
-7.016574 -2.718299 -167.033371 3 5 5
-7.066482 -2.703197 -166.105408 4 6 6
-7.076741 -2.673492 -164.280075 3 5 5
-7.125502 -2.658883 -163.382370 4 4 4
-7.173733 -2.644432 -162.494415 4 4 4
-7.915168 -2.574474 -158.195618 14 12 11
-8.042377 -2.588168 -159.037094 13 11 10
-8.127483 -2.588168 -159.037094 4 3 0
-8.212589 -2.588168 -159.037094 55 54 50
-8.342069 -2.602008 -159.887558 78 75 71
-8.518740 -2.630138 -161.616074 8 5 0
-8.467909 -2.588168 -159.037094 30 27 22
3.772676 -0.446337 -26.553261 25 21 16
3.755131 -0.445941 -26.529701 33 17 11
3.734308 -0.445151 -26.482704 54 24 19
3.716844 -0.444757 -26.459269 81 33 29
3.249818 -0.422688 -25.146318 217 13 18
3.230926 -0.421978 -25.104092 208 12 18
3.214793 -0.421624 -25.083031 188 8 13
3.198687 -0.421270 -25.062006 162 7 11
3.185275 -0.421270 -25.062006 135 7 8
3.171864 -0.421270 -25.062006 110 8 9
3.155807 -0.420918 -25.041016 85 5 4
3.028001 -0.439314 -26.135466 113 2 0
3.014015 -0.439314 -26.135466 118 2 1
2.997409 -0.438931 -26.112640 120 2 1
2.980832 -0.438548 -26.089853 120 0 1
2.964283 -0.438165 -26.067108 122 3 4
2.952909 -0.438548 -26.089853 125 8 11
2.938947 -0.438548 -26.089853 121 11 13
2.924985 -0.438548 -26.089853 119 10 12
2.916113 -0.439314 -26.135466 118 11 14
1.595774 -0.445546 -26.506182 232 15 22
1.581590 -0.445546 -26.506182 231 14 21
1.568796 -0.445941 -26.529701 228 14 20
1.555980 -0.446337 -26.553261 228 14 20
1.541770 -0.446337 -26.553261 226 14 20
1.527561 -0.446337 -26.553261 226 14 20
1.514696 -0.446734 -26.576864 229 19 25
1.500474 -0.446734 -26.576864 234 28 33
1.487574 -0.447131 -26.600510 232 34 36
6.577925 -2.233669 -132.884323 9 7 7
6.365362 -2.185111 -129.995529 8 8 8
6.268542 -2.175652 -129.432785 5 5 5
6.199278 -2.175652 -129.432785 9 7 6
6.183551 -2.194653 -130.563202 19 15 14
6.113682 -2.194653 -130.563202 13 9 8
6.043813 -2.194653 -130.563202 14 9 10
6.000145 -2.204278 -131.135849 23 18 20
5.929970 -2.204278 -131.135849 16 10 11
5.808840 -2.185111 -129.995529 12 4 5
5.689798 -2.166274 -128.874878 67 58 55
5.549078 -2.138619 -127.229668 68 61 58
5.480992 -2.138619 -127.229668 25 20 17
5.389971 -2.129557 -126.690559 26 23 19
5.277451 -2.111662 -125.625938 105 99 100
6.988152 -3.027563 -180.114288 8 8 8
6.975812 -3.064485 -182.310806 5 5 5
6.836565 -3.045912 -181.205902 5 5 5
6.739595 -3.045912 -181.205902 7 7 7
6.683129 -3.064485 -182.310806 2 2 2
6.585568 -3.064485 -182.310806 12 12 12
6.488008 -3.064485 -182.310806 13 13 13
6.351717 -3.045912 -181.205902 5 5 5
0.783613 -0.468820 -27.890833 3 3 3
0.770124 -0.469697 -27.942965 5 5 5
4.538206 -2.939038 -174.847794 14 9 6
0.844593 -0.964636 -57.387665 6 7 5
0.813883 -0.964636 -57.387665 22 23 21
0.783173 -0.964636 -57.387665 40 39 35
0.751021 -0.962788 -57.277725 48 44 39
0.720370 -0.962788 -57.277725 36 30 25
0.688400 -0.960947 -57.168209 48 39 36
0.654056 -0.955467 -56.842152 39 32 29
0.609727 -0.934155 -55.574299 49 41 41
0.521185 -0.884816 -52.639038 39 31 31
0.488714 -0.877095 -52.179707 43 38 37
-1.215321 -0.966491 -57.498024 36 37 33
-1.253321 -0.972100 -57.831669 38 37 33
-1.286757 -0.973984 -57.943745 39 36 32
-1.325471 -0.979679 -58.282597 45 40 37
-1.359310 -0.981593 -58.396431 56 47 44
-1.390560 -0.981593 -58.396431 41 32 29
-1.421810 -0.981593 -58.396431 49 41 41
-1.453060 -0.981593 -58.396431 31 23 23
-1.487215 -0.983514 -58.510708 19 15 14
-6.863206 -2.746314 -163.382370 2 4 4
-6.950638 -2.746314 -163.382370 2 4 4
-6.961983 -2.716624 -161.616074 0 2 2
-7.048469 -2.716624 -161.616074 1 1 1
-7.173733 -2.731389 -162.494415 2 2 2
-7.915168 -2.659130 -158.195618 14 12 11
-7.999825 -2.659130 -158.195618 18 17 13
-8.127483 -2.673274 -159.037094 4 3 0
-8.169136 -2.659130 -158.195618 59 58 54
-8.253793 -2.659130 -158.195618 94 91 86
-8.472939 -2.702019 -160.747162 10 7 2
-8.423104 -2.659130 -158.195618 32 30 22
-3.245248 -0.526809 -31.340643 13 15 9
-3.258604 -0.526257 -31.307825 12 14 8
-3.268513 -0.525157 -31.242395 15 17 11
3.776030 -0.460956 -26.576864 22 17 14
3.755131 -0.460138 -26.529701 27 18 14
3.737618 -0.459730 -26.506182 35 18 15
3.716844 -0.458916 -26.459269 56 27 23
3.220196 -0.435778 -25.125187 204 9 12
3.204058 -0.435412 -25.104092 202 13 15
3.193305 -0.435778 -25.125187 190 13 16
3.177190 -0.435412 -25.104092 173 12 14
3.137960 -0.447048 -25.774977 50 10 11
3.129562 -0.447820 -25.819492 49 7 8
3.113057 -0.447434 -25.797215 53 6 8
3.118084 -0.450152 -25.953970 58 5 8
3.017451 -0.451721 -26.044401 113 1 1
3.011383 -0.452904 -26.112640 121 2 3
2.994793 -0.452509 -26.089853 122 0 1
2.975639 -0.451721 -26.044401 124 1 5
2.961701 -0.451721 -26.044401 122 2 6
2.950334 -0.452115 -26.067108 124 8 13
2.936385 -0.452115 -26.067108 127 17 21
2.922435 -0.452115 -26.067108 117 12 15
2.916113 -0.453300 -26.135466 118 13 16
1.595774 -0.459730 -26.506182 229 13 18
1.582993 -0.460138 -26.529701 232 16 21
1.568796 -0.460138 -26.529701 232 18 23
1.555980 -0.460547 -26.553261 228 17 21
1.541770 -0.460547 -26.553261 226 17 21
1.527561 -0.460547 -26.553261 229 21 25
1.513351 -0.460547 -26.553261 235 29 34
1.500474 -0.460956 -26.576864 239 35 40
1.486252 -0.460956 -26.576864 236 39 41
6.758142 -2.367925 -136.524994 7 5 4
6.478023 -2.294582 -132.296341 10 9 5
6.323289 -2.264522 -130.563202 11 10 6
6.226231 -2.254676 -129.995529 15 14 10
6.210672 -2.274454 -131.135849 18 13 10
6.140497 -2.274454 -131.135849 19 14 11
6.070321 -2.274454 -131.135849 19 14 13
6.000145 -2.274454 -131.135849 32 27 26
5.904075 -2.264522 -130.563202 77 69 69
5.783693 -2.244915 -129.432785 86 78 78
5.689798 -2.235239 -128.874878 47 39 39
5.525564 -2.197354 -126.690559 32 24 24
5.457768 -2.197354 -126.690559 32 27 26
5.344677 -2.178889 -125.625938 11 7 6
5.233472 -2.160731 -124.579056 92 86 87
5.124104 -2.142874 -123.549477 74 69 70
6.946307 -3.105242 -179.035767 7 7 7
6.891766 -3.123949 -180.114288 6 8 8
6.795381 -3.123949 -180.114288 2 2 2
6.698995 -3.123949 -180.114288 4 4 4
6.602610 -3.123949 -180.114288 4 4 4
6.545656 -3.142882 -181.205902 6 6 6
6.409839 -3.123949 -180.114288 16 14 14
6.313453 -3.123949 -180.114288 12 10 10
0.783613 -0.483746 -27.890833 3 5 6
0.770124 -0.484650 -27.942965 3 5 6
0.756585 -0.485558 -27.995293 5 4 6
0.846218 -0.997261 -57.498024 11 9 8
0.813883 -0.995346 -57.387665 13 12 8
0.783173 -0.995346 -57.387665 31 28 24
0.751021 -0.993440 -57.277725 42 35 32
0.720370 -0.993440 -57.277725 57 48 45
0.688400 -0.991540 -57.168209 46 34 34
0.656552 -0.989648 -57.059109 46 36 36
0.614294 -0.971115 -55.990585 52 42 42
0.528631 -0.926028 -53.391022 49 39 39
0.493016 -0.912985 -52.639038 40 32 32
-1.156005 -0.999182 -57.608810 37 33 28
-1.182278 -0.995346 -57.387665 43 40 35
-1.215321 -0.997261 -57.498024 45 42 38
-1.250901 -1.001111 -57.720024 38 34 33
-1.286757 -1.004991 -57.943745 48 43 42
-1.322893 -1.008902 -58.169209 51 46 45
-1.354021 -1.008902 -58.169209 44 39 36
-1.385149 -1.008902 -58.169209 49 44 41
-1.416278 -1.008902 -58.169209 34 29 26
-1.450228 -1.010868 -58.282597 41 38 34
-1.487215 -1.014825 -58.510708 19 16 12
-1.524493 -1.018812 -58.740616 13 12 8
-1.970067 -1.289989 -74.375557 14 15 13
-6.924552 -2.788040 -160.747162 3 3 3
-6.973084 -2.773131 -159.887558 3 3 3
-7.134956 -2.803111 -161.616074 4 4 4
-7.915168 -2.743786 -158.195618 17 14 10
-7.999825 -2.743786 -158.195618 22 19 14
-8.084480 -2.743786 -158.195618 16 13 8
-8.126141 -2.729345 -157.363007 33 30 25
-8.167365 -2.715055 -156.539124 46 43 38
-8.338449 -2.743786 -158.195618 22 19 14
-8.291493 -2.700914 -155.723816 25 22 17
-8.418674 -2.715055 -156.539124 25 22 17
-3.445689 -0.598817 -34.525372 15 15 9
-3.452206 -0.596750 -34.406181 18 17 13
-3.458678 -0.594697 -34.287811 18 17 13
-3.245248 -0.543580 -31.340643 19 18 14
-3.262020 -0.543580 -31.340643 18 17 13
-3.271932 -0.542443 -31.275076 17 16 12
-3.278380 -0.540746 -31.177240 17 16 12
3.803776 -0.476874 -26.671698 22 19 15
3.782754 -0.476024 -26.624197 21 18 14
3.761807 -0.475178 -26.576864 29 24 21
3.740935 -0.474335 -26.529701 24 15 12
3.720136 -0.473495 -26.482704 26 14 10
3.212200 -0.451881 -25.273857 213 12 15
3.187896 -0.450358 -25.188688 205 12 15
3.169078 -0.449601 -25.146318 188 8 9
3.147679 -0.448469 -25.083031 179 8 10
3.134256 -0.448469 -25.083031 162 9 10
3.131341 -0.449979 -25.167486 133 5 6
3.154472 -0.461239 -25.797215 61 1 1
3.140667 -0.461239 -25.797215 56 6 6
3.134977 -0.462436 -25.864162 58 9 11
3.121136 -0.462436 -25.864162 54 5 7
3.115380 -0.463639 -25.931459 55 5 7
3.101503 -0.463639 -25.931459 60 5 8
3.092992 -0.464444 -25.976519 66 6 7
3.087137 -0.465658 -26.044401 74 6 7
3.009586 -0.464444 -25.976519 113 1 1
3.008755 -0.466471 -26.089853 121 1 2
2.992182 -0.466064 -26.067108 126 0 5
2.975639 -0.465658 -26.044401 124 1 5
2.961701 -0.465658 -26.044401 123 3 8
2.947764 -0.465658 -26.044401 123 10 14
2.933827 -0.465658 -26.044401 124 17 20
2.922435 -0.466064 -26.067108 116 13 16
2.918664 -0.467695 -26.158331 118 13 16
1.726902 -0.470992 -26.342707 235 32 35
1.705292 -0.468926 -26.227169 228 25 28
1.582993 -0.474335 -26.529701 228 14 19
1.568796 -0.474335 -26.529701 227 16 20
1.555980 -0.474756 -26.553261 226 17 21
1.541770 -0.474756 -26.553261 225 20 23
1.528918 -0.475178 -26.576864 228 25 28
1.514696 -0.475178 -26.576864 234 30 35
1.500474 -0.475178 -26.576864 233 35 37
1.487574 -0.475601 -26.600510 236 39 41
7.090205 -2.533533 -141.701294 14 9 6
6.624585 -2.418894 -135.289474 14 13 9
6.435703 -2.375891 -132.884323 18 18 12
6.308517 -2.354958 -131.713531 18 15 10
6.265634 -2.365378 -132.296341 17 12 9
6.167547 -2.354958 -131.713531 28 21 18
6.097063 -2.354958 -131.713531 70 63 60
6.000145 -2.344629 -131.135849 102 95 92
5.904075 -2.334391 -130.563202 69 62 59
5.783693 -2.314180 -129.432785 26 19 16
5.665379 -2.294315 -128.321777 20 12 12
5.502250 -2.255593 -126.156006 12 7 6
5.434739 -2.255593 -126.156006 24 18 19
5.344677 -2.246115 -125.625938 20 15 16
5.233472 -2.227398 -124.579056 43 38 39
5.124104 -2.208990 -123.549477 56 51 52
5.037174 -2.199899 -123.041039 27 22 24
6.864102 -3.163169 -176.916992 9 9 9
6.809721 -3.181997 -177.970078 6 8 8
6.714483 -3.181997 -177.970078 3 3 3
6.658882 -3.201051 -179.035767 5 5 5
6.563073 -3.201051 -179.035767 4 4 4
