ply
format ascii 1.0
element vertex 1177
property float x
property float y
property float z
property uchar red
property uchar green
property uchar blue
end_header
-13.859035 -0.529993 -37.873058 28 25 21
-13.880715 -0.529993 -37.873058 29 27 26
-13.846110 -0.527847 -37.719727 17 20 18
-13.811785 -0.525718 -37.567631 15 22 19
-13.740945 -0.522209 -37.316849 12 21 18
-13.689200 -0.519435 -37.118618 8 20 14
-18.711687 -0.695969 -49.733662 24 22 22
-18.673702 -0.693501 -49.557301 17 14 16
-18.802082 -0.697209 -49.822315 18 16 16
-18.763708 -0.694733 -49.645325 20 18 18
-19.028719 -0.703479 -50.270355 22 18 17
-18.921371 -0.698454 -49.911282 19 15 14
-18.815546 -0.693501 -49.557301 15 11 10
-18.910975 -0.695969 -49.733662 15 11 10
-19.075211 -0.700958 -50.090176 23 18 15
-19.138184 -0.702216 -50.180103 18 14 9
-18.996384 -0.695969 -49.733662 16 12 7
-18.957390 -0.693501 -49.557301 19 16 12
-19.087286 -0.697209 -49.822315 22 18 17
-19.287712 -0.703479 -50.270355 17 15 14
-19.247253 -0.700958 -50.090176 14 12 11
-19.070866 -0.693501 -49.557301 22 20 19
-13.028947 -0.472385 -33.756424 33 30 25
-4.998140 -0.180413 -12.892213 34 34 28
-5.005520 -0.180413 -12.892213 35 36 34
-5.008280 -0.180246 -12.880331 32 34 34
-5.008729 -0.179997 -12.862549 22 25 29
-5.016092 -0.179997 -12.862549 32 35 43
-5.014225 -0.179667 -12.838915 35 41 52
-5.026192 -0.179832 -12.850721 30 36 49
-5.033548 -0.179832 -12.850721 49 51 62
-5.036273 -0.179667 -12.838915 107 109 117
-5.038994 -0.179502 -12.827131 65 65 71
-5.039399 -0.179255 -12.809495 43 44 48
-5.044419 -0.179173 -12.803627 59 62 66
-5.086405 -0.178845 -12.780210 25 22 24
-5.096051 -0.178927 -12.786056 34 36 37
-5.110384 -0.179173 -12.803627 30 35 33
-5.120059 -0.179255 -12.809495 33 43 37
-5.136808 -0.179584 -12.833020 33 44 36
-5.127674 -0.179009 -12.791907 40 47 40
-5.116264 -0.178356 -12.745243 40 45 36
-7.880536 -0.259545 -18.546993 57 52 54
-7.885920 -0.259373 -18.534695 34 31 33
-7.912271 -0.259890 -18.571640 29 31 32
-7.907140 -0.259373 -18.534695 31 35 36
-7.912504 -0.259201 -18.522411 34 39 42
-7.923107 -0.259201 -18.522411 25 28 32
-7.928455 -0.259029 -18.510145 23 26 30
-7.928550 -0.258687 -18.485661 20 20 26
-7.939132 -0.258687 -18.485661 24 20 26
-7.949714 -0.258687 -18.485661 25 18 25
-6.562244 -0.212689 -15.198650 19 12 15
-6.570945 -0.212689 -15.198650 24 18 19
-6.561805 -0.212112 -15.157439 22 17 18
-6.636443 -0.206077 -14.726195 42 44 38
-6.606584 -0.204890 -14.641340 39 41 35
-6.597684 -0.204355 -14.603092 49 50 46
-6.571709 -0.203292 -14.527192 51 49 48
-6.562969 -0.202765 -14.489538 45 46 44
-6.513858 -0.200994 -14.362959 42 42 42
-6.495378 -0.200171 -14.304154 53 53 53
-6.486967 -0.199660 -14.267646 56 53 55
-61.634460 -1.880454 -134.376526 62 59 55
-61.711384 -1.880454 -134.376526 61 58 54
-61.788307 -1.880454 -134.376526 73 69 68
-61.865231 -1.880454 -134.376526 73 68 69
-61.942154 -1.880454 -134.376526 80 75 76
-59.446857 -1.802463 -128.803314 78 73 75
-13.306656 -0.738901 -50.726532 33 34 32
-13.287463 -0.736229 -50.543072 25 30 29
-13.292359 -0.734900 -50.451839 24 30 29
-13.321240 -0.734900 -50.451839 28 36 35
-6.894853 -0.378730 -26.000296 28 33 34
-6.909737 -0.378730 -26.000296 29 33 34
-4.518856 -0.216446 -14.859286 52 47 44
-4.522553 -0.216216 -14.843504 56 51 48
-4.523843 -0.215872 -14.819893 48 44 39
-4.534731 -0.215986 -14.827755 52 48 43
-4.543219 -0.215986 -14.827755 67 65 57
-4.546883 -0.215758 -14.812039 75 73 65
-4.543324 -0.215187 -14.772896 75 73 63
-4.546974 -0.214960 -14.757296 96 88 75
-4.553017 -0.214847 -14.749508 100 91 78
-4.559055 -0.214733 -14.741729 104 92 82
-4.567493 -0.214733 -14.741729 106 96 86
-4.573520 -0.214620 -14.733958 99 90 81
-7.130408 -0.333991 -22.928892 105 96 92
-7.131833 -0.333443 -22.891335 117 112 109
-7.127425 -0.332626 -22.835228 100 98 97
-7.134667 -0.332355 -22.816586 98 98 98
-7.141899 -0.332084 -22.797976 129 129 129
-7.125888 -0.330735 -22.705376 136 134 134
-7.110006 -0.329397 -22.613525 160 155 156
-7.105704 -0.328599 -22.558771 194 190 189
-7.107146 -0.328070 -22.522415 204 202 201
-7.114306 -0.327806 -22.504282 211 212 210
-6.992175 -0.317578 -21.802120 203 205 206
-6.966616 -0.315853 -21.683723 191 193 193
-6.914656 -0.312940 -21.483719 173 176 174
-6.884620 -0.311027 -21.352421 132 136 131
-5.205212 -0.231458 -15.889891 56 56 50
-5.199528 -0.230802 -15.844851 60 58 50
-5.193877 -0.230150 -15.800067 57 55 47
-5.164965 -0.228471 -15.684803 54 53 43
-5.153699 -0.227577 -15.623431 51 49 41
-5.133945 -0.226312 -15.536586 39 40 31
-5.160049 -0.227069 -15.588577 34 34 28
-5.166091 -0.226942 -15.579887 22 22 16
-5.183678 -0.227322 -15.605985 24 23 19
-5.198417 -0.227577 -15.623431 32 29 25
-5.189954 -0.226816 -15.571208 36 31 28
-15.075877 -0.657729 -45.153988 30 23 20
-15.152051 -0.658794 -45.227051 41 29 25
-15.202541 -0.659861 -45.300354 33 18 9
-15.203832 -0.658794 -45.227051 55 36 23
-15.180593 -0.656669 -45.081158 84 61 45
-15.181912 -0.655611 -45.008564 77 55 37
-15.158856 -0.653506 -44.864075 68 51 32
-15.184539 -0.653506 -44.864075 52 40 22
-15.210221 -0.653506 -44.864075 37 29 16
-15.284972 -0.655611 -45.008564 26 21 12
-15.385061 -0.658794 -45.227051 27 18 14
-15.386055 -0.657729 -45.153988 29 20 16
-15.387045 -0.656669 -45.081158 28 19 15
-15.412851 -0.656669 -45.081158 27 18 14
-15.438658 -0.656669 -45.081158 30 24 19
-13.032896 -0.536409 -36.825188 33 22 14
-13.019669 -0.534999 -36.728409 34 22 12
-8.735805 -0.354956 -24.368195 30 23 28
-8.742132 -0.354647 -24.346968 20 17 19
-8.748449 -0.354338 -24.325777 7 9 9
-13.899549 -0.552421 -37.924450 24 22 21
-13.846110 -0.549439 -37.719727 18 19 17
-13.811785 -0.547224 -37.567631 8 13 11
-13.740945 -0.543571 -37.316849 11 18 15
-13.707404 -0.541402 -37.167976 8 18 12
-13.692265 -0.539966 -37.069389 6 16 10
-13.752945 -0.540683 -37.118618 26 31 30
-13.774194 -0.540683 -37.118618 26 26 26
-18.861204 -0.733576 -50.360935 26 25 29
-18.754862 -0.728326 -50.000568 29 28 32
-18.778513 -0.727026 -49.911282 24 21 23
-18.740156 -0.724439 -49.733662 19 16 18
-18.903168 -0.729632 -50.090176 21 18 20
-19.131948 -0.736229 -50.543072 18 16 16
-19.023281 -0.730942 -50.180103 16 14 14
-19.138184 -0.730942 -50.180103 19 15 10
-18.962643 -0.723152 -49.645325 23 20 12
-19.253084 -0.730942 -50.180103 24 22 21
-19.178514 -0.727026 -49.911282 16 14 13
-13.056931 -0.493496 -33.879173 19 18 14
-13.044701 -0.492303 -33.797241 24 21 16
-13.207785 -0.497719 -34.169094 34 35 26
-5.003212 -0.187706 -12.886270 28 32 27
-5.003668 -0.187447 -12.868471 28 30 30
-5.006876 -0.187016 -12.838915 34 38 43
-5.007325 -0.186759 -12.821247 37 41 52
-5.016965 -0.186845 -12.827131 37 40 54
-5.026615 -0.186930 -12.833020 48 48 60
-5.029343 -0.186759 -12.821247 96 95 105
-5.034373 -0.186673 -12.815369 87 86 95
-5.037090 -0.186502 -12.803627 40 40 46
-5.076768 -0.186076 -12.774368 28 23 25
-5.084080 -0.186076 -12.774368 33 30 32
-5.093721 -0.186161 -12.780210 36 35 37
-5.117713 -0.186502 -12.803627 34 39 37
-5.134450 -0.186845 -12.827131 32 38 33
-5.127674 -0.186332 -12.791907 36 40 35
-5.113933 -0.185567 -12.739434 39 41 35
-7.896117 -0.271062 -18.608734 199 192 199
-7.896255 -0.270701 -18.583988 210 206 211
-7.906893 -0.270701 -18.583988 128 130 131
-7.928074 -0.271062 -18.608734 71 75 76
-7.922902 -0.270521 -18.571640 56 61 62
-7.933533 -0.270521 -18.571640 46 49 53
-7.944165 -0.270521 -18.571640 47 48 52
-7.938971 -0.269983 -18.534695 55 56 60
-7.939052 -0.269626 -18.510145 50 49 51
-7.944386 -0.269447 -18.497894 38 35 37
-7.954975 -0.269447 -18.497894 32 27 29
-6.580135 -0.221993 -15.240087 27 21 22
-6.585268 -0.221872 -15.231781 31 26 27
-6.568929 -0.221029 -15.173897 24 19 20
-6.632948 -0.214394 -14.718440 39 40 36
-6.599669 -0.213048 -14.626017 43 44 40
-6.587359 -0.212381 -14.580239 43 44 40
-6.564885 -0.211389 -14.512107 54 55 53
-6.566373 -0.211169 -14.497053 48 50 50
-6.513858 -0.209216 -14.362959 49 51 52
-6.495378 -0.208360 -14.304154 49 51 52
-6.486967 -0.207828 -14.267646 45 44 48
-61.634460 -1.957378 -134.376526 58 55 50
-61.711384 -1.957378 -134.376526 72 69 65
-61.865231 -1.957378 -134.376526 77 73 72
-61.942154 -1.957378 -134.376526 69 67 67
-59.446857 -1.876196 -128.803314 75 72 74
-13.330850 -0.769336 -50.818760 31 31 31
-6.901273 -0.393980 -26.024506 23 31 31
-6.909737 -0.393614 -26.000296 27 32 31
-4.526074 -0.225311 -14.883023 51 43 43
-4.527362 -0.224952 -14.859286 53 48 47
-4.531050 -0.224713 -14.843504 59 54 51
-4.541959 -0.224832 -14.851391 61 58 53
-4.550461 -0.224832 -14.851391 65 66 57
-4.554123 -0.224594 -14.835626 70 73 64
-4.550539 -0.223999 -14.796357 88 87 77
-4.549376 -0.223526 -14.765092 97 91 78
-4.555421 -0.223408 -14.757296 101 94 79
-4.563869 -0.223408 -14.757296 106 97 84
-4.572317 -0.223408 -14.757296 107 97 87
-7.153883 -0.348259 -23.004377 106 100 95
-7.143534 -0.347116 -22.928892 119 116 112
-7.146335 -0.345981 -22.853899 108 108 108
-7.153568 -0.345698 -22.835228 138 138 138
-7.154949 -0.345134 -22.797976 141 139 139
-7.150503 -0.344292 -22.742325 163 161 161
-7.134496 -0.342897 -22.650177 194 192 191
-7.130127 -0.342065 -22.595245 205 203 202
-6.977442 -0.328776 -21.717419 190 191 189
-6.941333 -0.326493 -21.566605 172 173 171
-5.199300 -0.240281 -15.871844 58 55 50
-5.196582 -0.239736 -15.835875 60 57 49
-5.193877 -0.239194 -15.800067 54 51 43
-5.170768 -0.237716 -15.702426 57 55 47
-5.156581 -0.236652 -15.632169 51 49 41
-5.133945 -0.235205 -15.536586 40 38 30
-5.165811 -0.236256 -15.605985 36 33 28
-5.174745 -0.236256 -15.605985 24 21 16
-5.195282 -0.236785 -15.640917 29 26 22
-5.207149 -0.236917 -15.649674 28 25 21
-15.100271 -0.684684 -45.227051 31 22 19
-15.101725 -0.683578 -45.153988 33 24 20
-15.152051 -0.684684 -45.227051 43 29 23
-15.202541 -0.685793 -45.300354 55 35 24
-15.203832 -0.684684 -45.227051 65 39 25
-15.205117 -0.683578 -45.153988 82 54 37
-15.181912 -0.681376 -45.008564 86 61 41
-15.183228 -0.680281 -44.936203 82 61 40
-15.208951 -0.680281 -44.936203 55 41 22
-15.234674 -0.680281 -44.936203 40 31 17
-15.309626 -0.682475 -45.081158 33 27 16
-15.385061 -0.684684 -45.227051 32 26 19
-15.386055 -0.683578 -45.153988 31 25 18
-15.387045 -0.682475 -45.081158 29 21 14
-15.412851 -0.682475 -45.081158 29 21 14
-15.463599 -0.683578 -45.153988 30 24 17
-12.998644 -0.556024 -36.728409 29 19 12
-8.735805 -0.368905 -24.368195 17 12 14
-8.742132 -0.368584 -24.346968 11 10 12
-8.748449 -0.368263 -24.325777 5 10 9
-8.754755 -0.367943 -24.304625 11 18 15
-13.899549 -0.574131 -37.924450 18 16 15
-13.864821 -0.571803 -37.770702 15 16 12
-13.777735 -0.566445 -37.416759 8 14 9
-13.762307 -0.564933 -37.316849 8 13 11
-13.746961 -0.563428 -37.217468 6 11 9
-13.805031 -0.564933 -37.316849 21 23 23
-13.807957 -0.564179 -37.267090 27 27 27
-13.847754 -0.564933 -37.316849 26 24 24
-13.813787 -0.562679 -37.167976 22 20 20
-13.835064 -0.562679 -37.167976 21 18 20
-13.986534 -0.567966 -37.517204 25 22 24
-18.827280 -0.761033 -50.270355 35 32 34
-18.721371 -0.755597 -49.911282 28 25 27
-18.749943 -0.755597 -49.911282 25 24 26
-18.745041 -0.754250 -49.822315 16 15 17
-18.740156 -0.752908 -49.733662 14 13 15
-18.869352 -0.756949 -50.000568 20 19 21
-18.965832 -0.759667 -50.180103 14 13 15
-19.097414 -0.763781 -50.451839 14 13 15
-19.023281 -0.759667 -50.180103 14 14 14
-13.041123 -0.512269 -33.838158 18 17 13
-13.028947 -0.511032 -33.756424 21 20 16
-13.159522 -0.515389 -34.044235 30 30 24
-13.131029 -0.513513 -33.920288 29 29 23
-4.998603 -0.194903 -12.874398 26 30 25
-4.999065 -0.194634 -12.856632 29 31 31
-4.994937 -0.194187 -12.827131 27 31 32
-4.999985 -0.194098 -12.821247 30 34 39
-5.002735 -0.193920 -12.809495 28 31 39
-5.010068 -0.193920 -12.809495 37 39 49
-5.019701 -0.194009 -12.815369 48 49 59
-5.024733 -0.193920 -12.809495 84 83 92
-5.029761 -0.193832 -12.803627 100 100 106
-5.034784 -0.193743 -12.797765 31 31 37
-5.037497 -0.193566 -12.786056 53 56 60
-5.091393 -0.193389 -12.774368 20 18 17
-5.115370 -0.193743 -12.797765 21 23 23
-5.127674 -0.193654 -12.791907 41 39 39
-5.116264 -0.192948 -12.745243 48 44 43
-7.906645 -0.282090 -18.633545 158 154 165
-7.906769 -0.281714 -18.608734 227 226 235
-7.917422 -0.281714 -18.608734 141 144 148
-7.938645 -0.282090 -18.633545 94 99 100
-7.938727 -0.281714 -18.608734 63 68 67
-7.954675 -0.281902 -18.621132 60 62 63
-7.960032 -0.281714 -18.608734 52 51 53
-7.949514 -0.280966 -18.559309 56 55 57
-7.944313 -0.280407 -18.522411 55 53 53
-7.949647 -0.280222 -18.510145 47 45 44
-7.960244 -0.280222 -18.510145 45 41 40
-7.970840 -0.280222 -18.510145 34 30 29
-6.583725 -0.230843 -15.248401 37 33 32
-6.588859 -0.230717 -15.240087 37 33 32
-6.576069 -0.229964 -15.190391 41 36 37
-6.629457 -0.222702 -14.710694 38 42 37
-6.596218 -0.221305 -14.618367 29 33 28
-6.587359 -0.220727 -14.580239 46 50 45
-6.564885 -0.219696 -14.512107 44 47 45
-6.510512 -0.217326 -14.355582 43 45 45
-6.495378 -0.216548 -14.304154 52 54 55
-61.634460 -2.034301 -134.376526 65 63 55
-61.711384 -2.034301 -134.376526 74 71 66
-61.865231 -2.034301 -134.376526 73 71 70
-61.942154 -2.034301 -134.376526 74 72 72
-59.446857 -1.949929 -128.803314 82 79 81
-6.879970 -0.408497 -26.000296 25 33 33
-6.894853 -0.408497 -26.000296 24 30 29
-6.903316 -0.408118 -25.976131 29 31 31
-6.898950 -0.406983 -25.903910 29 30 28
-4.533316 -0.234205 -14.906837 50 42 42
-4.534594 -0.233831 -14.883023 53 48 47
-4.535868 -0.233458 -14.859286 54 50 49
-4.546792 -0.233582 -14.867190 63 62 58
-4.555302 -0.233582 -14.867190 64 66 60
-4.558963 -0.233334 -14.851391 70 74 68
-4.560195 -0.232963 -14.827755 83 87 76
-4.559009 -0.232469 -14.796357 94 90 79
-4.560236 -0.232101 -14.772896 99 93 80
-4.568693 -0.232101 -14.772896 105 97 84
-4.579570 -0.232223 -14.780707 106 97 87
-7.171591 -0.362322 -23.061319 107 103 98
-7.161158 -0.361130 -22.985458 121 119 118
-7.150793 -0.359946 -22.910097 110 110 110
-7.163908 -0.359946 -22.910097 109 111 111
-7.165277 -0.359357 -22.872601 129 131 131
-7.166640 -0.358770 -22.835228 138 138 138
-7.173851 -0.358477 -22.816586 165 163 163
-7.169355 -0.357601 -22.760845 190 188 187
-7.159065 -0.356440 -22.686947 203 204 200
-5.196350 -0.249225 -15.862837 56 50 45
-5.199528 -0.248942 -15.844851 65 59 54
-5.196815 -0.248379 -15.809004 57 51 44
-5.170768 -0.246705 -15.702426 50 47 39
-5.159467 -0.245738 -15.640917 43 40 32
-5.136801 -0.244235 -15.545227 40 38 30
-5.212986 -0.246152 -15.667219 31 26 23
-15.100271 -0.710574 -45.227051 40 28 26
-15.101725 -0.709426 -45.153988 39 28 24
-15.176609 -0.711725 -45.300354 49 33 26
-15.227221 -0.712881 -45.373894 56 32 20
-15.228473 -0.711725 -45.300354 82 53 38
-15.205117 -0.709426 -45.153988 91 59 40
-15.206400 -0.708281 -45.081158 98 68 49
-15.207678 -0.707141 -45.008564 80 56 36
-15.233442 -0.707141 -45.008564 56 41 22
-15.283819 -0.708281 -45.081158 43 34 20
-15.334358 -0.709426 -45.153988 23 17 6
-15.409996 -0.711725 -45.300354 29 24 15
-15.410951 -0.710574 -45.227051 26 20 13
-15.387045 -0.708281 -45.081158 24 16 9
-15.463599 -0.709426 -45.153988 25 19 12
-8.645696 -0.383189 -24.389458 36 26 19
-8.652108 -0.382855 -24.368195 36 27 18
-8.729465 -0.383189 -24.389458 24 18 19
-8.735805 -0.382855 -24.368195 16 11 13
-8.742132 -0.382521 -24.346968 14 14 14
-8.748449 -0.382188 -24.325777 7 9 9
-8.762374 -0.382188 -24.325777 6 11 9
-8.776299 -0.382188 -24.325777 4 11 8
-8.797881 -0.382521 -24.346968 5 11 10
-13.975399 -0.599092 -38.131401 14 13 9
-13.883583 -0.594228 -37.821812 13 12 8
-13.849013 -0.591825 -37.668892 9 10 6
-13.814722 -0.589442 -37.517204 9 13 8
-13.799153 -0.587864 -37.416759 10 13 11
-13.860547 -0.588652 -37.466915 20 20 20
-13.863411 -0.587864 -37.416759 22 20 20
-13.884830 -0.587864 -37.416759 26 22 21
-13.869116 -0.586294 -37.316849 27 23 22
-13.871957 -0.585513 -37.267090 21 19 19
-18.934725 -0.795534 -50.634636 26 24 24
-18.895248 -0.792662 -50.451839 31 29 29
-18.856056 -0.789810 -50.270355 25 23 23
-18.918861 -0.791233 -50.360935 23 21 21
-18.845819 -0.786979 -50.090176 14 14 14
-18.840729 -0.785572 -50.000568 16 16 16
-18.937105 -0.788392 -50.180103 15 15 15
-19.166609 -0.795534 -50.634636 12 12 12
-19.057495 -0.789810 -50.270355 12 12 12
-13.041123 -0.531640 -33.838158 21 19 19
-13.028947 -0.530356 -33.756424 30 28 27
-13.159522 -0.534878 -34.044235 26 24 23
-4.991705 -0.201994 -12.856632 23 26 24
-4.992176 -0.201715 -12.838915 26 31 30
-4.988070 -0.201253 -12.809495 19 24 27
-4.993114 -0.201161 -12.803627 30 34 39
-5.027458 -0.201069 -12.797765 113 113 119
-5.030178 -0.200885 -12.786056 49 52 56
-5.081758 -0.200610 -12.768533 36 33 29
-5.089067 -0.200610 -12.768533 19 18 14
-5.127391 -0.201253 -12.809495 30 27 29
-5.127674 -0.200977 -12.791907 34 29 30
-5.116264 -0.200244 -12.745243 42 37 38
-7.911920 -0.292952 -18.645977 138 139 149
-7.917312 -0.292756 -18.633545 222 223 233
-7.927979 -0.292756 -18.633545 150 154 159
-7.943941 -0.292952 -18.645977 85 89 90
-7.949312 -0.292756 -18.633545 66 68 68
-7.959979 -0.292756 -18.633545 56 55 57
-7.965335 -0.292561 -18.621132 46 44 44
-7.960085 -0.291978 -18.583988 46 44 44
-7.949581 -0.291203 -18.534695 43 41 40
-7.954916 -0.291010 -18.522411 36 33 29
-7.965519 -0.291010 -18.522411 33 30 25
-6.587318 -0.239702 -15.256724 37 32 29
-6.588859 -0.239441 -15.240087 36 32 31
-6.579645 -0.238790 -15.198650 34 28 29
-6.577616 -0.238401 -15.173897 41 36 37
-6.625969 -0.231002 -14.702955 42 46 41
-6.596218 -0.229673 -14.618367 43 44 40
-6.587359 -0.229074 -14.580239 40 44 39
-6.564885 -0.228003 -14.512107 40 43 41
-6.507170 -0.225428 -14.348212 51 53 53
-6.488736 -0.224506 -14.289529 51 53 54
-61.634460 -2.111224 -134.376526 63 61 53
-61.711384 -2.111224 -134.376526 69 66 61
-61.865231 -2.111224 -134.376526 69 67 66
-59.373123 -2.023661 -128.803314 72 70 70
-59.174164 -2.014379 -128.212463 62 61 63
-6.850202 -0.423381 -26.000296 30 32 33
-6.873576 -0.422987 -25.976131 27 32 31
-6.894853 -0.423381 -26.000296 26 31 30
-6.903316 -0.422987 -25.976131 29 30 28
-6.892562 -0.421421 -25.879925 31 30 26
-4.534594 -0.242351 -14.883023 44 39 40
-4.540696 -0.242222 -14.875103 56 54 53
-4.554059 -0.242480 -14.890953 59 60 58
-4.557726 -0.242222 -14.875103 62 66 61
-4.561387 -0.241964 -14.859286 61 67 62
-4.562615 -0.241579 -14.835626 81 86 77
-4.566261 -0.241323 -14.819893 89 88 78
-4.567479 -0.240939 -14.796357 96 92 81
-4.578373 -0.241067 -14.804194 101 94 85
-4.589278 -0.241195 -14.812039 102 96 89
-7.177513 -0.375834 -23.080362 105 101 100
-7.178869 -0.375214 -23.042307 114 114 114
-7.174315 -0.374288 -22.985458 104 108 109
-7.187473 -0.374288 -22.985458 113 117 118
-7.182910 -0.373367 -22.928892 127 131 132
-7.178370 -0.372451 -22.872601 138 140 140
-7.185583 -0.372146 -22.853899 163 164 162
-7.186913 -0.371538 -22.816586 186 187 183
-7.188238 -0.370933 -22.779396 200 202 196
-5.199300 -0.258452 -15.871844 62 53 49
-5.205430 -0.258306 -15.862837 64 55 51
-5.199755 -0.257575 -15.817950 58 50 43
-5.182414 -0.256269 -15.737792 55 49 42
-5.162356 -0.254835 -15.649674 52 46 41
-15.100271 -0.736464 -45.227051 40 27 25
-15.101725 -0.735274 -45.153988 45 30 27
-15.176609 -0.737657 -45.300354 52 33 26
-15.227221 -0.738855 -45.373894 62 35 21
-15.228473 -0.737657 -45.300354 83 50 34
-15.205117 -0.735274 -45.153988 103 67 49
-15.206400 -0.734088 -45.081158 98 65 45
-15.232206 -0.734088 -45.081158 78 53 33
-15.258013 -0.734088 -45.081158 45 28 9
-15.283819 -0.734088 -45.081158 41 32 18
-15.334358 -0.735274 -45.153988 28 22 11
-15.409996 -0.737657 -45.300354 21 16 7
-15.386055 -0.735274 -45.153988 21 15 8
-15.463599 -0.735274 -45.153988 28 22 15
-8.624209 -0.396804 -24.368195 25 22 17
-8.638159 -0.396804 -24.368195 30 27 19
-8.700320 -0.396459 -24.346968 26 21 20
-8.721855 -0.396804 -24.368195 20 14 15
-8.728195 -0.396459 -24.346968 15 10 12
-8.734524 -0.396114 -24.325777 18 16 16
-8.748449 -0.396114 -24.325777 10 10 10
-8.754755 -0.395769 -24.304625 9 12 10
-8.776299 -0.396114 -24.325777 11 14 12
-8.797881 -0.396459 -24.346968 8 10 10
-14.052082 -0.624327 -38.340630 18 15 11
-13.902395 -0.616713 -37.873058 17 17 11
-13.903442 -0.610100 -37.466915 30 27 23
-13.887657 -0.608469 -37.366737 30 27 23
-13.871957 -0.606846 -37.267090 26 23 19
-19.038193 -0.829025 -50.911327 32 29 25
-19.056202 -0.826015 -50.726532 28 26 25
-18.947689 -0.820062 -50.360935 21 19 18
-19.448471 -0.836644 -51.379261 16 17 15
-13.117034 -0.555042 -34.085754 21 17 22
-13.056931 -0.551678 -33.879173 20 16 21
-13.044701 -0.550344 -33.797241 30 29 31
-13.191658 -0.555720 -34.127373 31 30 32
-4.982538 -0.208969 -12.833020 17 19 20
-4.985306 -0.208777 -12.821247 30 33 37
-4.983502 -0.208395 -12.797765 23 27 32
-4.988544 -0.208300 -12.791907 27 31 36
-4.993581 -0.208204 -12.786056 28 31 35
-5.025579 -0.208014 -12.774368 61 64 68
-5.028296 -0.207824 -12.762702 42 46 47
-5.084422 -0.207729 -12.756877 29 26 22
-7.906520 -0.303828 -18.658424 65 67 77
-7.917202 -0.303828 -18.658424 130 135 144
-7.922594 -0.303625 -18.645977 212 217 226
-7.933268 -0.303625 -18.645977 143 147 152
-7.949244 -0.303828 -18.658424 85 90 89
-7.954615 -0.303625 -18.645977 68 69 67
-7.970606 -0.303828 -18.658424 58 56 56
-7.970645 -0.303423 -18.633545 44 42 42
-7.960085 -0.302616 -18.583988 39 36 32
-7.949581 -0.301813 -18.534695 38 35 30
-7.954916 -0.301613 -18.522411 34 31 23
-7.970801 -0.301813 -18.534695 38 35 27
-6.578585 -0.248436 -15.256724 37 33 28
-6.587318 -0.248436 -15.256724 42 35 32
-6.588859 -0.248165 -15.240087 36 31 30
-6.579645 -0.247490 -15.198650 38 30 31
-6.581188 -0.247221 -15.182139 33 27 28
-6.619006 -0.239167 -14.687503 42 43 39
-6.592769 -0.237917 -14.610725 43 42 38
-6.577066 -0.237049 -14.557458 49 50 46
-6.561478 -0.236188 -14.504577 42 43 41
-6.495378 -0.232925 -14.304154 56 58 58
-61.634460 -2.188147 -134.376526 66 63 58
-61.711384 -2.188147 -134.376526 64 61 57
-61.788307 -2.188147 -134.376526 65 62 58
-61.865231 -2.188147 -134.376526 70 68 67
-59.373123 -2.097394 -128.803314 72 70 70
-57.847389 -2.040962 -125.337753 72 69 71
-6.867259 -0.440313 -26.121794 30 27 29
-6.850202 -0.438265 -26.000296 31 30 32
-6.845981 -0.437045 -25.927938 30 32 32
-6.873576 -0.437857 -25.976131 26 28 28
-6.894853 -0.438265 -26.000296 28 31 29
-6.903316 -0.437857 -25.976131 24 25 21
-6.892562 -0.436236 -25.879925 27 27 21
-6.881889 -0.434626 -25.784426 35 31 26
-4.541850 -0.251272 -14.906837 49 47 47
-4.555242 -0.251540 -14.922754 45 45 45
-4.568663 -0.251809 -14.938705 55 57 57
-4.565015 -0.251138 -14.898890 58 63 61
-4.563813 -0.250603 -14.867190 65 70 68
-4.567464 -0.250337 -14.851391 71 78 71
-4.571108 -0.250071 -14.835626 80 81 72
-7.189386 -0.389689 -23.118544 103 103 103
-7.184792 -0.388725 -23.061319 110 112 113
-7.197993 -0.388725 -23.061319 103 108 109
-7.212494 -0.388084 -23.023327 122 127 128
-7.201944 -0.386810 -22.947716 132 137 136
-7.197353 -0.385860 -22.891335 155 158 156
-7.198666 -0.385229 -22.853899 187 191 186
-7.205856 -0.384914 -22.835228 199 203 197
-5.196350 -0.267386 -15.862837 62 51 47
-5.208386 -0.267538 -15.871844 64 53 49
-5.202700 -0.266781 -15.826907 62 54 47
-5.188257 -0.265578 -15.755534 58 50 43
-5.165248 -0.263941 -15.658442 51 45 40
-15.100271 -0.762354 -45.227051 43 31 27
-15.101725 -0.761122 -45.153988 50 35 32
-15.176609 -0.763589 -45.300354 54 32 26
-15.227221 -0.764829 -45.373894 62 30 17
-15.228473 -0.763589 -45.300354 89 53 35
-15.205117 -0.761122 -45.153988 122 85 65
-15.206400 -0.759894 -45.081158 112 77 57
-15.232206 -0.759894 -45.081158 79 52 32
-15.258013 -0.759894 -45.081158 62 42 25
-15.283819 -0.759894 -45.081158 44 33 19
-15.359171 -0.762354 -45.227051 34 28 17
-15.409996 -0.763589 -45.300354 28 22 15
-15.388032 -0.758671 -45.008564 29 23 16
-15.463599 -0.761122 -45.153988 23 17 10
-8.588822 -0.410396 -24.346968 16 17 8
-8.595272 -0.410039 -24.325777 19 19 13
-8.616696 -0.410396 -24.346968 15 15 9
-8.658508 -0.410396 -24.346968 23 22 12
-8.672446 -0.410396 -24.346968 33 30 22
-8.714257 -0.410396 -24.346968 24 19 20
-8.720598 -0.410039 -24.325777 21 16 18
-8.734524 -0.410039 -24.325777 19 16 18
-8.740842 -0.409682 -24.304625 8 6 6
-8.754755 -0.409682 -24.304625 9 7 6
-8.768667 -0.409682 -24.304625 13 11 10
-8.790224 -0.410039 -24.325777 8 6 5
-8.570449 -0.392940 -23.311357 12 12 6
-8.582821 -0.392285 -23.272537 14 14 14
-8.596143 -0.392285 -23.272537 12 12 12
-8.595152 -0.391633 -23.233847 19 17 17
-19.325867 -0.872471 -51.759850 29 26 21
-19.142797 -0.862884 -51.191059 31 28 23
-19.102131 -0.859735 -51.004230 29 26 22
-19.131329 -0.859735 -51.004230 36 33 29
-19.195553 -0.861306 -51.097473 23 20 16
-19.050667 -0.853505 -50.634636 22 21 17
-19.108637 -0.853505 -50.634636 23 22 18
-19.672194 -0.877346 -52.049011 22 21 17
-19.520235 -0.869252 -51.568851 19 20 16
-19.265396 -0.856608 -50.818760 14 15 11
-13.197507 -0.578079 -34.294868 19 15 21
-13.289013 -0.579501 -34.379234 32 31 35
-4.980737 -0.215919 -12.809495 30 33 37
-4.978942 -0.215524 -12.786056 25 29 34
-7.911802 -0.314719 -18.670887 50 57 66
-7.917202 -0.314509 -18.658424 135 144 153
-7.922594 -0.314299 -18.645977 210 218 225
-7.933268 -0.314299 -18.645977 134 139 142
-7.949244 -0.314509 -18.658424 89 91 91
-7.959925 -0.314509 -18.658424 59 60 58
-7.970606 -0.314509 -18.658424 48 46 45
-7.970645 -0.314090 -18.633545 37 35 34
-7.960085 -0.313254 -18.583988 30 29 25
-7.944313 -0.312216 -18.522411 35 33 25
-7.949647 -0.312010 -18.510145 36 34 24
-6.578585 -0.257169 -15.256724 40 32 25
-6.583725 -0.257029 -15.248401 36 27 23
-6.585268 -0.256749 -15.231781 40 31 28
-6.576069 -0.256051 -15.190391 34 24 24
-6.577616 -0.255773 -15.173897 23 15 15
-6.582728 -0.255635 -15.165664 27 22 19
-61.634460 -2.265070 -134.376526 65 62 58
-61.711384 -2.265070 -134.376526 75 71 70
-61.865231 -2.265070 -134.376526 70 68 68
-59.373123 -2.171127 -128.803314 71 69 69
-6.860847 -0.454841 -26.097403 31 26 27
-6.850202 -0.453148 -26.000296 37 35 35
-6.852337 -0.452307 -25.952013 28 30 30
-6.867193 -0.452307 -25.952013 25 27 27
-6.888445 -0.452727 -25.976131 29 32 30
-6.896905 -0.452307 -25.952013 29 30 26
-6.886186 -0.450633 -25.855984 22 22 16
-6.850291 -0.447323 -25.666040 33 29 24
-6.796334 -0.442850 -25.409380 33 30 22
-4.571107 -0.259528 -14.890953 61 66 64
-4.572323 -0.259114 -14.867190 64 70 65
-7.199973 -0.404261 -23.195286 78 75 77
-7.195338 -0.403257 -23.137680 88 89 93
-7.229088 -0.402923 -23.118544 102 109 112
-7.230361 -0.402258 -23.080362 112 120 120
-7.225674 -0.401264 -23.023327 130 136 135
-7.215080 -0.399946 -22.947716 150 155 153
-7.216367 -0.399291 -22.910097 177 183 178
-7.223561 -0.398964 -22.891335 198 205 198
-5.190458 -0.276153 -15.844851 63 54 50
-5.211345 -0.276781 -15.880862 68 59 55
-5.205647 -0.275997 -15.835875 61 52 48
-5.191183 -0.274752 -15.764421 53 44 40
-5.165248 -0.272904 -15.658442 49 43 38
-15.124745 -0.789521 -45.300354 41 29 25
-15.126162 -0.788244 -45.227051 42 27 24
-15.201246 -0.790803 -45.373894 57 36 28
-15.251980 -0.792089 -45.447674 66 33 18
-15.228473 -0.789521 -45.300354 98 58 40
-15.205117 -0.786970 -45.153988 118 78 59
-15.230966 -0.786970 -45.153988 109 72 52
-15.232206 -0.785701 -45.081158 79 49 30
-15.258013 -0.785701 -45.081158 55 35 18
-15.283819 -0.785701 -45.081158 49 37 25
-15.359171 -0.788244 -45.227051 30 23 14
-8.588822 -0.424333 -24.346968 12 12 6
-8.595272 -0.423964 -24.325777 18 20 14
-8.616696 -0.424333 -24.346968 23 24 20
-8.630634 -0.424333 -24.346968 21 22 18
-8.672446 -0.424333 -24.346968 28 26 18
-8.686383 -0.424333 -24.346968 29 26 21
-8.692748 -0.423964 -24.325777 32 28 27
-8.706674 -0.423964 -24.325777 23 18 19
-8.720598 -0.423964 -24.325777 20 15 17
-8.734524 -0.423964 -24.325777 12 7 9
-8.748449 -0.423964 -24.325777 19 14 15
-8.754755 -0.423595 -24.304625 21 16 17
-8.776299 -0.423964 -24.325777 13 9 8
-8.797881 -0.424333 -24.346968 16 12 11
-8.592937 -0.407985 -23.408978 14 11 7
-8.570449 -0.406284 -23.311357 14 13 9
-8.569499 -0.405607 -23.272537 7 6 2
-8.582821 -0.405607 -23.272537 12 12 12
-8.613572 -0.403926 -23.176052 16 16 10
-19.325867 -0.902101 -51.759850 34 30 25
-19.072933 -0.888932 -51.004230 32 28 23
-19.021681 -0.882490 -50.634636 18 15 11
-13.213719 -0.598445 -34.337002 27 26 30
-4.976176 -0.223047 -12.797765 27 30 34
-4.974391 -0.222639 -12.774368 22 26 31
-4.970345 -0.222132 -12.745243 21 25 30
-7.895840 -0.325190 -18.658424 43 46 51
-7.906520 -0.325190 -18.658424 44 51 60
-7.911920 -0.324973 -18.645977 134 143 152
-7.917312 -0.324756 -18.633545 206 214 221
-7.922697 -0.324540 -18.621132 124 129 132
-7.943941 -0.324973 -18.645977 90 91 89
-7.954615 -0.324973 -18.645977 67 66 62
-7.970606 -0.325190 -18.658424 51 52 50
-7.970645 -0.324756 -18.633545 32 33 29
-7.949514 -0.323462 -18.559309 28 28 22
-7.939052 -0.322606 -18.510145 43 41 33
-6.555538 -0.265324 -15.223485 44 35 26
-6.574996 -0.265758 -15.248401 44 34 27
-6.580135 -0.265613 -15.240087 39 28 24
-6.581682 -0.265324 -15.223485 39 27 25
-6.572497 -0.264603 -15.182139 44 32 32
-6.574047 -0.264316 -15.165664 28 18 18
-61.634460 -2.341993 -134.376526 67 62 61
-61.711384 -2.341993 -134.376526 67 62 63
-61.865231 -2.341993 -134.376526 71 66 68
-59.100769 -2.234562 -128.212463 68 63 65
-6.867259 -0.470219 -26.121794 29 24 25
-6.856580 -0.468468 -26.024506 22 22 22
-6.852337 -0.467163 -25.952013 21 24 22
-6.873576 -0.467597 -25.976131 16 19 17
-6.894853 -0.468032 -26.000296 18 22 17
-6.879822 -0.465004 -25.832087 18 18 12
-6.837734 -0.461168 -25.618990 23 21 13
-4.146276 -0.252071 -14.003165 18 19 15
-4.143912 -0.251442 -13.968175 15 16 14
-3.862622 -0.230373 -12.797765 26 31 29
-3.887207 -0.228802 -12.710467 58 62 63
-3.880366 -0.227972 -12.664394 62 67 66
-7.223953 -0.418930 -23.272537 80 79 83
-7.219243 -0.417886 -23.214550 84 85 89
-7.202620 -0.416158 -23.118544 82 86 91
-7.251843 -0.418233 -23.233847 79 88 92
-7.253085 -0.417539 -23.195286 78 87 90
-7.242322 -0.416158 -23.118544 88 98 98
-7.243574 -0.415470 -23.080362 112 120 120
-7.244821 -0.414785 -23.042307 146 153 150
-7.246064 -0.414102 -23.004377 176 182 177
-7.259233 -0.414102 -23.004377 192 200 193
-7.272401 -0.414102 -23.004377 194 205 195
-7.279579 -0.413762 -22.985458 199 210 200
-7.271215 -0.411058 -22.835228 217 221 216
-7.296209 -0.411730 -22.872601 209 210 206
-5.184580 -0.284901 -15.826907 56 50 45
-5.208386 -0.285710 -15.871844 55 49 44
-5.205647 -0.285062 -15.835875 49 43 38
-15.150677 -0.815453 -45.300354 43 31 25
-15.276820 -0.819437 -45.521690 76 43 28
-15.253195 -0.816777 -45.373894 109 69 51
-15.229721 -0.814134 -45.227051 116 74 55
-15.230966 -0.812818 -45.153988 100 62 44
-15.256814 -0.812818 -45.153988 78 48 31
-15.282662 -0.812818 -45.153988 49 28 13
-15.308510 -0.812818 -45.153988 42 30 20
-15.384065 -0.815453 -45.300354 33 27 20
-15.409996 -0.815453 -45.300354 26 19 16
-8.567422 -0.437889 -24.325777 14 14 8
-8.581347 -0.437889 -24.325777 15 17 11
-8.587798 -0.437508 -24.304625 18 19 15
-8.616696 -0.438270 -24.346968 24 22 21
-8.630634 -0.438270 -24.346968 19 18 14
-8.658508 -0.438270 -24.346968 27 25 17
-8.672446 -0.438270 -24.346968 35 33 25
-8.678823 -0.437889 -24.325777 32 29 24
-8.692748 -0.437889 -24.325777 32 28 27
-8.706674 -0.437889 -24.325777 22 17 18
-8.720598 -0.437889 -24.325777 17 12 14
-8.742132 -0.438270 -24.346968 10 4 9
-8.756069 -0.438270 -24.346968 16 11 13
-8.762374 -0.437889 -24.325777 14 9 10
-8.783944 -0.438270 -24.346968 11 7 6
-8.805552 -0.438653 -24.368195 10 5 4
-8.577602 -0.419979 -23.330816 13 11 10
-8.583793 -0.419628 -23.311357 11 12 10
-8.597137 -0.419628 -23.311357 13 13 13
-8.603307 -0.419279 -23.291931 11 10 12
-8.595152 -0.418233 -23.233847 18 18 18
-8.587038 -0.417193 -23.176052 17 18 16
-8.593180 -0.416847 -23.156851 14 15 11
-8.613572 -0.417193 -23.176052 14 16 10
-8.605433 -0.416158 -23.118544 20 17 12
-18.866367 -0.908185 -50.451839 32 27 24
-18.827280 -0.904918 -50.270355 34 29 26
-18.890032 -0.906549 -50.360935 30 25 24
-18.884834 -0.904918 -50.270355 25 21 20
-18.879656 -0.903294 -50.180103 26 22 21
-18.942389 -0.904918 -50.270355 25 21 20
-13.358169 -0.625789 -34.764076 13 12 14
-13.295386 -0.621922 -34.549221 20 19 21
-13.233376 -0.618101 -34.337002 20 19 21
-13.285675 -0.619624 -34.421574 20 19 21
-13.424277 -0.624236 -34.677814 22 21 23
-13.460830 -0.625012 -34.720894 23 22 24
-4.971623 -0.230162 -12.786056 26 30 31
-4.963049 -0.229428 -12.745243 17 20 24
-4.961296 -0.229010 -12.722038 23 26 30
-7.885312 -0.335423 -18.633545 43 46 51
-7.890718 -0.335200 -18.621132 43 49 56
-7.901378 -0.335200 -18.621132 145 153 160
-7.901509 -0.334754 -18.596354 204 210 215
-7.901640 -0.334309 -18.571640 122 126 127
-7.922800 -0.334754 -18.596354 78 79 75
-7.938727 -0.334976 -18.608734 59 59 53
-7.959979 -0.335423 -18.633545 43 44 40
-7.954736 -0.334754 -18.596354 31 35 30
-7.938971 -0.333644 -18.534695 31 31 25
-7.933797 -0.332981 -18.497894 38 36 28
-6.493770 -0.271818 -15.100118 43 37 26
-6.544844 -0.273591 -15.198650 41 30 22
-6.571411 -0.274337 -15.240087 37 25 19
-6.572967 -0.274038 -15.223485 39 27 23
-6.570945 -0.273591 -15.198650 39 26 24
-6.561805 -0.272850 -15.157439 46 34 34
-6.563363 -0.272554 -15.141018 34 25 22
-61.634460 -2.418916 -134.376526 68 61 64
-61.865231 -2.418916 -134.376526 71 66 68
-59.373123 -2.318592 -128.803314 67 62 64
-6.877882 -0.483816 -26.048759 11 16 14
-6.899223 -0.484267 -26.073059 16 21 19
-6.886186 -0.480235 -25.855984 16 18 12
-6.831472 -0.475398 -25.595530 19 22 13
-6.777849 -0.470657 -25.340271 17 20 11
-4.144200 -0.259957 -13.996154 16 16 16
-4.143912 -0.259438 -13.968175 11 11 11
-3.855297 -0.237699 -12.797765 29 34 33
-3.860855 -0.237590 -12.791907 31 37 36
-3.866408 -0.237481 -12.786056 26 32 31
-3.903004 -0.237481 -12.786056 36 41 42
-3.887207 -0.236078 -12.710467 43 47 48
-7.248094 -0.433696 -23.350307 58 59 63
-7.249348 -0.432973 -23.311357 61 64 69
-7.262692 -0.432973 -23.311357 66 72 77
-7.306506 -0.434786 -23.408978 70 79 83
-7.295465 -0.433334 -23.330816 78 87 90
-7.266363 -0.430817 -23.195286 87 97 97
-7.255557 -0.429392 -23.118544 103 111 111
-7.262783 -0.429037 -23.099436 131 138 135
-7.276006 -0.429037 -23.099436 154 161 156
-7.289229 -0.429037 -23.099436 179 187 180
-7.302453 -0.429037 -23.099436 190 201 193
-7.303604 -0.428329 -23.061319 201 212 204
-7.304751 -0.427623 -23.023327 207 214 209
-7.287914 -0.425869 -22.928892 223 229 224
-7.283116 -0.424824 -22.872601 217 222 220
-7.308170 -0.425520 -22.910097 208 211 209
-5.205647 -0.294127 -15.835875 50 46 41
-5.197046 -0.293131 -15.782224 51 48 43
-5.171042 -0.291158 -15.676005 44 44 38
-15.150677 -0.841385 -45.300354 42 32 25
-15.301742 -0.846875 -45.595951 66 35 20
-15.277996 -0.844121 -45.447674 104 64 46
-15.254405 -0.841385 -45.300354 123 80 63
-15.255611 -0.840024 -45.227051 97 59 41
-15.256814 -0.838666 -45.153988 73 44 29
-15.307391 -0.840024 -45.227051 59 37 25
-15.333282 -0.840024 -45.227051 39 26 18
-15.384065 -0.841385 -45.300354 26 20 15
-15.435013 -0.842751 -45.373894 30 23 20
-15.386055 -0.838666 -45.153988 25 20 17
-8.546059 -0.451421 -24.304625 15 14 10
-8.552535 -0.451029 -24.283508 12 13 9
-8.573885 -0.451421 -24.304625 12 14 8
-8.580337 -0.451029 -24.283508 25 24 20
-8.609198 -0.451814 -24.325777 28 24 23
-8.623122 -0.451814 -24.325777 23 19 18
-8.637048 -0.451814 -24.325777 28 25 20
-8.658508 -0.452208 -24.346968 30 27 19
-8.672446 -0.452208 -24.346968 33 31 21
-8.678823 -0.451814 -24.325777 31 28 20
-8.692748 -0.451814 -24.325777 33 28 25
-8.706674 -0.451814 -24.325777 23 18 19
-8.720598 -0.451814 -24.325777 22 17 19
-8.742132 -0.452208 -24.346968 20 16 21
-8.756069 -0.452208 -24.346968 16 13 15
-8.770007 -0.452208 -24.346968 20 18 18
-8.791602 -0.452602 -24.368195 12 10 9
-8.813235 -0.452997 -24.389458 15 11 10
-8.597137 -0.432973 -23.311357 8 10 11
-8.603307 -0.432612 -23.291931 9 11 12
-8.595152 -0.431533 -23.233847 20 22 22
-8.613572 -0.430460 -23.176052 15 16 12
-8.605433 -0.429392 -23.118544 24 21 17
-18.837486 -0.937066 -50.451839 26 22 21
-18.832375 -0.935378 -50.360935 29 25 24
-18.827280 -0.933695 -50.270355 34 29 28
-18.856056 -0.933695 -50.270355 30 24 25
-18.850929 -0.932019 -50.180103 28 22 23
-18.908381 -0.932019 -50.180103 24 19 20
-18.971165 -0.933695 -50.270355 22 17 18
-13.408199 -0.648108 -34.894279 12 13 11
-13.328337 -0.643289 -34.634842 15 16 14
-13.387816 -0.643289 -34.634842 25 25 25
-13.477571 -0.645690 -34.764076 28 28 28
-7.880058 -0.345859 -18.621132 38 41 45
-7.880218 -0.345399 -18.596354 36 40 45
-7.885617 -0.345169 -18.583988 139 143 148
-7.880536 -0.344482 -18.546993 191 196 199
-7.880694 -0.344026 -18.522411 117 122 121
-7.901770 -0.344482 -18.546993 74 75 71
-7.944165 -0.344940 -18.571640 36 40 34
-7.928455 -0.343798 -18.510145 35 36 27
-7.923310 -0.343116 -18.473442 35 33 25
-6.490263 -0.280310 -15.091965 38 31 22
-6.527098 -0.281526 -15.157439 40 28 22
-6.564252 -0.282753 -15.223485 38 24 18
-6.565815 -0.282445 -15.206920 37 22 19
-6.553128 -0.281526 -15.157439 41 29 25
-6.554696 -0.281221 -15.141018 49 37 35
-6.556260 -0.280917 -15.124631 36 27 24
-16.796659 -0.713097 -38.393295 61 63 57
-16.749615 -0.710170 -38.235729 53 55 49
-16.725740 -0.708233 -38.131401 53 52 48
-16.769396 -0.708233 -38.131401 36 34 33
-61.865231 -2.495839 -134.376526 75 69 74
-59.373123 -2.392325 -128.803314 74 69 71
-6.953065 -0.502002 -26.219810 13 20 15
-6.929074 -0.499193 -26.073059 18 22 17
-6.892562 -0.495495 -25.879925 16 20 14
-4.148653 -0.268777 -14.038332 15 15 15
-4.146276 -0.268103 -14.003165 22 22 22
-4.148058 -0.267701 -13.982150 19 18 20
-3.842692 -0.244689 -12.780210 19 21 21
-3.853532 -0.244913 -12.791907 19 24 23
-3.860855 -0.244913 -12.791907 18 24 23
-3.868177 -0.244913 -12.791907 19 25 24
-3.901220 -0.244689 -12.780210 40 45 48
-3.887207 -0.243354 -12.710467 42 46 47
-3.882125 -0.242581 -12.670135 61 65 66
-3.873575 -0.241596 -12.618654 64 66 66
-3.861621 -0.240402 -12.556297 78 80 80
-7.246835 -0.447811 -23.389387 50 49 53
-7.254154 -0.447437 -23.369831 50 51 55
-7.255399 -0.446690 -23.330816 50 55 58
-7.293105 -0.448186 -23.408978 56 62 67
-7.324910 -0.449315 -23.467941 55 64 67
-7.319906 -0.448186 -23.408978 55 67 69
-7.302725 -0.446317 -23.311357 76 86 86
-7.273605 -0.443727 -23.176052 96 104 104
-7.274808 -0.442992 -23.137680 127 133 132
-7.288053 -0.442992 -23.137680 146 153 150
-7.301298 -0.442992 -23.137680 170 177 172
-7.308493 -0.442626 -23.118544 181 191 185
-7.315676 -0.442260 -23.099436 193 203 197
-7.316805 -0.441530 -23.061319 206 216 210
-7.299891 -0.439716 -22.966572 223 230 227
-7.289081 -0.438276 -22.891335 216 221 219
-5.780608 -0.343255 -17.928364 114 116 110
-5.776051 -0.342377 -17.882481 127 127 121
-5.208599 -0.303364 -15.844851 52 49 44
-5.199982 -0.302336 -15.791141 46 43 38
-5.173944 -0.300300 -15.684803 42 42 36
-15.175272 -0.868725 -45.373894 37 30 21
-15.275640 -0.872976 -45.595951 48 32 20
-15.326745 -0.874403 -45.670456 75 46 31
-15.277996 -0.870137 -45.447674 112 74 56
-15.254405 -0.867317 -45.300354 108 68 50
-15.255611 -0.865913 -45.227051 86 50 34
-15.281501 -0.865913 -45.227051 73 44 29
-15.307391 -0.865913 -45.227051 48 28 17
-15.358132 -0.867317 -45.300354 31 19 13
-15.409039 -0.868725 -45.373894 31 25 20
-15.435013 -0.868725 -45.373894 23 18 17
-8.509063 -0.463320 -24.199409 21 20 16
-8.522916 -0.463320 -24.199409 16 17 13
-8.544167 -0.463721 -24.220381 20 21 17
-8.558031 -0.463721 -24.220381 20 19 15
-8.579330 -0.464124 -24.241386 28 23 24
-8.608139 -0.464930 -24.283508 27 22 21
-8.622040 -0.464930 -24.283508 32 28 23
-8.650972 -0.465739 -24.325777 29 26 18
-8.657363 -0.465334 -24.304625 32 27 18
-8.663743 -0.464930 -24.283508 35 29 22
-8.670111 -0.464527 -24.262428 35 30 27
-8.691545 -0.464930 -24.283508 22 17 18
-8.705445 -0.464930 -24.283508 23 18 20
-8.726929 -0.465334 -24.304625 18 14 19
-8.740842 -0.465334 -24.304625 13 10 12
-8.754755 -0.465334 -24.304625 8 5 7
-8.776299 -0.465739 -24.325777 11 9 9
-8.797881 -0.466145 -24.346968 6 4 3
-8.597137 -0.446317 -23.311357 2 4 5
-8.596143 -0.445574 -23.272537 5 7 7
-8.588013 -0.444464 -23.214550 19 21 21
-8.593180 -0.443359 -23.156851 14 17 15
-8.606436 -0.443359 -23.156851 21 22 20
-8.605433 -0.442626 -23.118544 23 21 20
-18.707302 -0.960744 -50.180103 29 27 26
-18.736029 -0.960744 -50.180103 29 24 25
-18.731125 -0.959022 -50.090176 30 25 26
-18.759798 -0.959022 -50.090176 33 28 29
-18.754862 -0.957307 -50.000568 32 26 27
-18.716520 -0.953894 -49.822315 28 21 24
-18.678452 -0.950505 -49.645325 22 15 18
-18.840729 -0.957307 -50.000568 18 13 15
-18.903168 -0.959022 -50.090176 21 16 18
-13.509394 -0.673125 -35.157635 16 17 13
-13.461787 -0.669755 -34.981625 18 22 17
-13.437771 -0.665590 -34.764076 14 15 13
-13.508075 -0.668083 -34.894279 19 20 18
-13.595944 -0.671436 -35.069408 23 24 22
-7.880058 -0.356519 -18.621132 35 40 43
-7.874979 -0.355808 -18.583988 34 38 43
-7.880377 -0.355571 -18.571640 124 129 132
-7.875310 -0.354864 -18.534695 169 173 174
-7.875475 -0.354394 -18.510145 111 113 113
-7.891297 -0.354629 -18.522411 75 76 72
-7.938890 -0.355335 -18.559309 36 38 32
-7.928455 -0.354394 -18.510145 34 35 26
-6.516496 -0.289732 -15.132820 43 31 25
-6.553544 -0.290992 -15.198650 41 29 25
-6.551557 -0.290518 -15.173897 37 25 21
-6.542484 -0.289732 -15.132820 38 26 22
-6.551147 -0.289732 -15.132820 41 29 27
-6.552714 -0.289418 -15.116451 29 20 17
-6.561367 -0.289418 -15.116451 14 9 6
-16.773619 -0.734067 -38.340630 49 49 43
-16.749615 -0.732058 -38.235729 51 51 45
-16.748590 -0.731058 -38.183495 48 47 43
-16.839462 -0.734067 -38.340630 36 35 31
-16.815277 -0.732058 -38.235729 33 31 30
-16.587557 -0.721206 -37.668892 42 40 39
-16.497950 -0.716378 -37.416759 33 33 33
-61.865231 -2.572762 -134.376526 68 62 67
-59.373123 -2.466058 -128.803314 75 70 72
-56.086815 -2.326672 -121.523125 76 71 72
-6.966135 -0.517984 -26.269096 18 25 22
-6.942026 -0.515079 -26.121794 15 18 16
-6.898950 -0.510783 -25.903910 16 20 15
-4.144200 -0.275981 -13.996154 24 24 24
-4.143912 -0.275430 -13.968175 25 23 23
-3.837131 -0.252120 -12.786056 27 25 25
-3.837428 -0.251660 -12.762702 28 28 28
-3.844734 -0.251660 -12.762702 20 23 21
-3.853800 -0.251775 -12.768533 23 28 26
-3.861109 -0.251775 -12.768533 30 35 34
-3.861362 -0.251315 -12.745243 21 27 26
-3.899437 -0.251890 -12.774368 40 43 47
-3.887207 -0.250630 -12.710467 45 47 48
-7.258984 -0.461974 -23.428598 55 54 56
-7.260224 -0.461200 -23.389387 58 60 61
-7.267531 -0.460815 -23.369831 55 59 60
-7.337231 -0.463528 -23.507416 47 57 57
-7.332188 -0.462361 -23.448254 48 60 60
-7.327170 -0.461200 -23.389387 64 74 74
-7.303886 -0.458896 -23.272537 81 89 89
-7.292919 -0.457373 -23.195286 116 121 122
-7.306197 -0.457373 -23.195286 136 141 140
-7.313406 -0.456994 -23.176052 155 161 160
-7.314543 -0.456237 -23.137680 170 178 177
-5.815105 -0.356260 -18.067432 146 146 140
-5.780608 -0.353518 -17.928364 108 108 102
-5.776051 -0.352613 -17.882481 122 119 114
-5.208599 -0.312435 -15.844851 54 51 46
-5.199982 -0.311375 -15.791141 53 50 45
-5.173944 -0.309279 -15.684803 44 44 38
-15.150677 -0.893249 -45.300354 34 27 18
-15.250762 -0.897613 -45.521690 44 30 18
-15.276820 -0.897613 -45.521690 70 44 28
-15.277996 -0.896154 -45.447674 85 52 33
-15.254405 -0.893249 -45.300354 102 64 46
-15.230966 -0.890363 -45.153988 90 56 40
-15.256814 -0.890363 -45.153988 69 42 28
-15.282662 -0.890363 -45.153988 54 34 23
-15.358132 -0.893249 -45.300354 31 19 13
-15.384065 -0.893249 -45.300354 26 20 15
-8.487019 -0.475937 -24.136717 19 17 16
-8.549669 -0.476348 -24.157579 25 19 20
-8.578327 -0.477173 -24.199409 25 17 18
-8.633739 -0.477173 -24.199409 42 36 29
-8.647592 -0.477173 -24.199409 34 29 26
-8.661444 -0.477173 -24.199409 17 12 13
-8.682815 -0.477586 -24.220381 14 9 11
-8.704222 -0.478000 -24.241386 16 12 17
-8.710544 -0.477586 -24.220381 6 5 7
-8.724409 -0.477586 -24.220381 12 11 13
-8.611502 -0.460430 -23.350307 6 8 9
-8.610482 -0.459662 -23.311357 10 12 12
-8.595152 -0.458133 -23.233847 21 21 21
-8.613572 -0.456994 -23.176052 15 15 15
-8.605433 -0.455860 -23.118544 16 16 16
-18.769726 -0.991249 -50.270355 27 25 25
-18.731125 -0.987696 -50.090176 25 23 23
-18.793478 -0.989470 -50.180103 26 23 25
-18.788473 -0.987696 -50.090176 30 25 27
-18.783484 -0.985929 -50.000568 25 20 22
-18.745041 -0.982414 -49.822315 23 18 20
-18.908381 -0.989470 -50.180103 21 16 18
-18.937105 -0.989470 -50.180103 21 16 18
-13.509394 -0.693251 -35.157635 10 14 8
-13.478657 -0.690645 -35.025463 11 15 9
-13.448150 -0.688058 -34.894279 10 14 8
-13.451331 -0.687200 -34.850773 12 16 10
-13.437771 -0.685491 -34.764076 20 24 19
-13.508075 -0.688058 -34.894279 21 22 18
-7.885312 -0.367423 -18.633545 41 47 52
-7.885465 -0.366934 -18.608734 59 64 67
-7.890863 -0.366690 -18.596354 138 143 146
-7.880536 -0.365716 -18.546993 145 150 149
-7.875475 -0.364990 -18.510145 93 96 94
-7.891297 -0.365232 -18.522411 70 71 67
-7.917641 -0.365959 -18.559309 59 61 55
-7.954675 -0.367178 -18.621132 42 44 38
-7.954736 -0.366690 -18.596354 41 42 33
-7.933710 -0.365232 -18.522411 39 39 33
-6.516496 -0.298394 -15.132820 40 31 27
-6.549983 -0.299530 -15.190391 34 23 19
-6.544451 -0.298880 -15.157439 33 22 18
-6.538944 -0.298233 -15.124631 24 15 11
-6.547602 -0.298233 -15.124631 30 21 17
-6.549172 -0.297911 -15.108280 27 21 16
-6.557820 -0.297911 -15.108280 17 12 9
-16.773619 -0.756014 -38.340630 52 51 47
-16.749615 -0.753946 -38.235729 51 50 46
-16.748590 -0.752916 -38.183495 50 47 43
-16.862593 -0.757053 -38.393295 37 34 30
-16.838312 -0.754979 -38.288109 33 32 28
-16.654896 -0.745784 -37.821812 33 32 28
-16.542238 -0.739778 -37.517204 33 34 32
-16.519367 -0.737797 -37.416759 30 31 29
-61.788307 -2.649685 -134.376526 61 57 62
-61.865231 -2.649685 -134.376526 63 59 64
-61.942154 -2.649685 -134.376526 70 66 71
-57.589142 -2.460422 -124.778206 75 72 74
-6.948519 -0.530528 -26.146229 15 17 17
-6.905350 -0.526099 -25.927938 17 18 16
-6.869215 -0.522223 -25.736942 17 17 17
-4.133850 -0.283284 -13.961198 17 18 16
-4.133583 -0.282719 -13.933359 20 18 17
-3.823139 -0.258493 -12.739434 31 29 29
-3.825202 -0.258140 -12.722038 31 29 29
-3.830740 -0.258023 -12.716250 20 21 19
-3.839767 -0.258140 -12.722038 20 23 21
-3.847049 -0.258140 -12.722038 28 30 30
-3.852579 -0.258023 -12.716250 25 30 29
-3.895876 -0.258966 -12.762702 36 37 41
-3.887207 -0.257906 -12.710467 41 43 44
-3.882125 -0.257087 -12.670135 43 45 46
-3.873575 -0.256043 -12.618654 59 61 61
-3.863356 -0.254892 -12.561941 66 68 68
-7.245572 -0.475385 -23.428598 51 51 51
-7.265074 -0.475784 -23.448254 55 55 55
-7.266304 -0.474987 -23.408978 61 61 61
-7.273613 -0.474590 -23.389387 56 60 61
-7.367147 -0.479809 -23.646631 61 69 69
-7.344511 -0.476584 -23.487663 63 73 73
-7.339453 -0.475385 -23.428598 77 87 87
-7.340559 -0.474590 -23.389387 91 96 97
-7.335532 -0.473401 -23.330816 115 120 121
-7.348888 -0.473401 -23.330816 135 139 140
-7.343853 -0.472219 -23.272537 154 158 159
-7.326673 -0.470261 -23.176052 166 171 172
-5.822633 -0.367077 -18.090820 141 141 135
-5.788033 -0.364248 -17.951393 117 117 111
-5.208599 -0.321505 -15.844851 53 49 44
-5.202921 -0.320596 -15.800067 51 47 42
-5.173944 -0.318257 -15.684803 39 36 31
-15.150677 -0.919181 -45.300354 39 30 21
-15.225964 -0.922170 -45.447674 54 38 26
-15.251980 -0.922170 -45.447674 78 52 36
-15.253195 -0.920673 -45.373894 102 70 51
-15.229721 -0.917693 -45.227051 100 64 46
-15.206400 -0.914733 -45.081158 93 59 43
-8.472386 -0.488909 -24.095102 21 19 18
-8.534916 -0.489331 -24.115892 21 15 16
-8.556104 -0.489753 -24.136717 20 14 15
-8.618814 -0.490177 -24.157579 35 32 24
-8.632643 -0.490177 -24.157579 27 22 19
-8.639005 -0.489753 -24.136717 15 10 11
-8.701787 -0.490177 -24.157579 9 11 12
-8.611502 -0.473797 -23.350307 11 13 14
-8.603307 -0.472612 -23.291931 14 16 16
-8.588013 -0.471042 -23.214550 19 20 18
-8.579924 -0.469871 -23.156851 15 16 14
-8.613572 -0.470261 -23.176052 12 12 12
-8.612556 -0.469482 -23.137680 15 15 15
-18.866367 -1.023709 -50.451839 23 23 23
-18.861204 -1.021864 -50.360935 21 21 21
-18.890032 -1.021864 -50.360935 26 24 24
-18.884834 -1.020026 -50.270355 22 19 21
-18.913610 -1.020026 -50.270355 25 20 21
-19.039654 -1.023709 -50.451839 20 15 16
-13.529519 -0.713377 -35.157635 13 17 11
-13.515643 -0.711587 -35.069408 13 18 9
-13.518757 -0.710695 -35.025463 12 16 10
-13.471281 -0.707150 -34.850773 17 21 16
-13.575870 -0.711587 -35.069408 21 22 18
