ply
format ascii 1.0
element vertex 1175
property float x
property float y
property float z
property uchar red
property uchar green
property uchar blue
end_header
-13.127450 -1.653888 -26.420692 28 26 25
-12.957835 -1.630756 -26.051172 28 23 24
-10.178219 -1.260531 -20.136852 45 45 51
-10.080056 -1.247049 -19.921484 49 48 57
-9.983971 -1.233853 -19.710676 46 45 54
-9.889897 -1.220933 -19.504280 47 46 55
-9.707541 -1.195888 -19.104193 52 52 58
-9.619140 -1.183747 -18.910242 48 48 54
-9.532515 -1.171850 -18.720188 43 43 49
-17.354202 -5.058025 -80.114357 82 74 74
-16.722902 -4.861977 -77.009148 84 74 74
-16.260057 -4.715753 -74.693085 83 75 75
-15.709573 -4.544892 -71.986816 74 72 71
-5.679818 -1.447373 -22.925032 34 38 32
-5.622921 -1.429776 -22.646307 33 37 31
-5.567390 -1.412601 -22.374281 29 35 30
-13.540449 -2.322945 -36.793259 24 25 21
-13.313653 -2.280709 -36.124290 33 34 32
-11.313466 -1.910239 -30.256388 23 24 22
-11.137488 -1.877830 -29.743055 23 24 22
-10.988952 -1.850133 -29.304367 15 16 14
-10.834234 -1.821476 -28.850475 17 18 16
-10.674061 -1.791986 -28.383373 20 21 19
-6.805693 -1.097134 -17.377575 27 25 25
-6.771590 -1.090142 -17.266825 28 25 27
-16.734705 -2.505440 -39.683811 18 18 18
-15.499710 -2.305864 -36.522720 23 25 25
-15.406038 -2.289033 -36.256134 22 24 24
-15.406760 -2.286252 -36.212078 24 24 24
-15.732381 -2.328695 -36.884335 27 25 25
-15.446315 -2.283477 -36.168133 32 32 32
-15.171147 -2.239982 -35.479214 25 25 25
-14.906266 -2.198113 -34.816051 22 24 24
-14.737055 -2.167725 -34.334724 19 24 23
-13.930480 -2.036348 -32.253834 18 17 21
-13.768572 -1.995318 -31.603968 31 34 32
-13.698381 -1.982703 -31.404152 25 31 26
-13.686398 -1.978533 -31.338108 21 27 22
-12.957835 -1.644742 -26.051172 19 14 15
-7.607931 -2.161259 -33.943668 71 72 76
-7.514886 -2.129725 -33.448418 72 74 75
-7.474124 -2.113124 -33.187683 70 72 73
-4.423213 -1.154249 -18.128067 35 40 39
-10.319704 -1.775103 -27.878897 29 27 26
-10.191664 -1.750540 -27.493118 32 27 28
-10.057967 -1.725078 -27.093220 35 30 31
-7.356582 -1.210967 -19.018852 26 33 30
-7.273953 -1.195706 -18.779169 29 34 32
-7.211331 -1.183771 -18.591728 21 27 22
-6.801727 -1.105819 -17.367449 30 29 25
-6.775515 -1.100049 -17.276834 31 29 29
-6.604257 -1.067859 -16.771267 23 25 26
-6.554246 -1.058330 -16.621607 26 30 31
-6.523150 -1.051877 -16.520256 22 28 27
-15.275951 -2.289005 -35.949989 16 18 18
-15.203553 -2.275282 -35.734463 21 22 20
-15.296101 -2.286247 -35.906677 17 18 16
-14.625443 -2.158800 -33.905052 20 21 25
-14.593837 -2.151457 -33.789730 25 23 29
-14.064819 -2.058118 -32.323795 22 26 20
-13.871542 -2.027335 -31.840322 21 25 19
-13.741822 -2.005904 -31.503742 16 23 16
-13.700804 -1.997458 -31.371096 10 17 10
-12.324307 -1.570849 -24.670979 24 21 17
-12.176277 -1.550315 -24.348482 27 27 21
-12.032067 -1.530311 -24.034307 21 24 15
-11.891532 -1.510816 -23.728138 20 28 18
-4.416167 -1.164690 -18.139099 61 59 58
-4.425906 -1.164690 -18.139099 46 48 48
-4.427560 -1.162567 -18.106039 45 47 48
-28.804501 -6.315463 -98.358223 21 22 20
-27.670137 -6.055649 -94.311836 24 24 24
-9.019843 -1.921270 -29.922230 16 12 11
-8.600535 -1.818997 -28.329412 13 14 12
-8.558795 -1.806974 -28.142155 17 23 22
-7.015392 -1.418521 -22.092321 13 13 13
-7.255665 -1.202756 -18.731955 26 29 27
-7.202345 -1.192265 -18.568562 28 31 29
-6.797766 -1.114493 -17.357332 24 25 21
-6.783380 -1.110612 -17.296890 31 29 28
-6.589424 -1.074444 -16.733601 27 29 30
-6.546944 -1.066064 -16.603086 31 33 33
-6.803058 -1.015165 -15.810367 14 20 19
-6.768457 -1.008743 -15.710354 12 16 17
-6.730766 -1.001877 -15.603425 12 15 19
-12.176277 -1.563387 -24.348482 23 23 17
-12.032067 -1.543214 -24.034307 18 20 14
-11.891532 -1.523555 -23.728138 20 24 18
-11.754531 -1.504391 -23.429670 16 20 15
-11.620934 -1.485703 -23.138618 15 19 14
-11.490616 -1.467473 -22.854710 17 21 16
-8.595613 -1.071436 -16.686752 53 52 56
-14.319834 -4.176591 -64.507668 72 71 73
-14.020641 -4.079461 -63.007484 65 63 69
-13.735048 -3.986746 -61.575497 75 73 79
-13.627328 -3.945982 -60.945892 60 60 66
-28.709749 -6.347320 -98.034676 16 17 13
-9.113581 -1.960961 -30.287136 21 13 13
-9.037992 -1.941233 -29.982435 26 18 18
-8.981800 -1.925734 -29.743055 24 19 18
-8.608719 -1.835952 -28.356367 18 16 15
-8.558795 -1.822082 -28.142155 15 21 20
-8.549684 -1.816935 -28.062656 9 17 17
-7.020596 -1.431443 -22.108709 26 24 23
-6.996136 -1.424048 -21.994495 18 16 15
-6.763588 -1.017714 -15.718639 15 21 20
-6.761329 -1.016106 -15.693808 11 15 16
-6.734292 -1.010783 -15.611598 12 16 17
-6.718040 -1.007090 -15.554563 16 17 21
-13.505311 -1.947109 -30.073200 23 21 21
-13.373017 -1.925734 -29.743055 17 17 17
-13.256683 -1.906705 -29.449152 16 16 16
-11.754531 -1.516969 -23.429670 15 19 14
-11.620934 -1.498125 -23.138618 16 17 15
-11.490616 -1.479743 -22.854710 18 19 15
-11.363458 -1.461807 -22.577682 24 23 19
-11.239344 -1.444300 -22.307291 23 23 17
-8.659381 -1.089546 -16.828087 54 53 57
-8.605248 -1.081606 -16.705460 54 52 58
-8.537646 -1.071992 -16.556967 54 52 58
-8.466574 -1.061962 -16.402060 55 55 61
-8.401399 -1.052692 -16.258888 53 56 60
-7.399960 -2.145077 -32.858368 69 68 70
-7.289018 -2.107893 -32.288776 74 74 74
-5.267403 -1.230604 -18.850437 37 38 42
-9.141451 -1.983267 -30.379757 28 18 18
-9.037992 -1.957329 -29.982435 32 24 24
-8.963908 -1.937834 -29.683805 32 25 22
-8.608719 -1.851175 -28.356367 29 25 24
-8.550720 -1.835458 -28.115604 24 29 28
-8.541640 -1.830278 -28.036257 14 20 19
-11.667073 -1.838927 -28.168753 20 21 17
-11.561987 -1.820005 -27.878897 23 24 22
-11.385247 -1.789867 -27.417240 29 29 29
-11.204126 -1.759119 -26.946239 31 28 30
-11.138028 -1.746486 -26.752729 32 29 31
-10.984760 -1.720235 -26.350611 24 21 23
-10.836031 -1.694761 -25.960402 28 26 26
-10.587235 -1.651600 -25.299271 32 33 31
-10.458763 -1.629468 -24.960253 21 22 20
-10.333689 -1.607922 -24.630199 32 33 31
-10.195248 -1.584353 -24.269171 29 30 28
-10.101340 -1.567756 -24.014940 29 30 28
-13.165617 -1.909308 -29.246851 20 22 22
-11.363458 -1.473928 -22.577682 22 21 17
-11.239344 -1.456276 -22.307291 26 23 19
-11.118169 -1.439042 -22.043299 23 20 16
-10.999827 -1.422211 -21.785482 25 22 18
-10.884222 -1.405770 -21.533628 30 26 25
-8.537646 -1.080881 -16.556967 48 49 53
-8.466574 -1.070768 -16.402060 54 55 59
-8.401399 -1.061421 -16.258888 51 55 60
-8.337352 -1.052236 -16.118195 43 49 54
-8.274405 -1.043209 -15.979915 48 57 61
-8.212527 -1.034336 -15.843987 46 52 57
-8.147399 -1.025071 -15.702076 43 46 51
-7.281129 -2.122928 -32.253834 72 72 72
-7.228042 -2.102449 -31.942701 74 75 73
-5.277417 -1.243083 -18.886274 22 23 27
-8.919488 -1.944088 -29.536711 45 37 37
-8.651114 -1.878913 -28.546495 35 30 29
-8.567958 -1.857562 -28.222103 33 29 28
-8.510576 -1.841864 -27.983606 28 29 27
-8.485761 -1.833257 -27.852842 27 30 28
-6.587214 -1.215356 -18.465019 24 26 26
-11.454832 -1.817966 -27.620520 31 29 28
-11.138028 -1.760849 -26.752729 24 19 20
-10.984760 -1.734381 -26.350611 36 34 34
-10.728478 -1.689565 -25.669716 36 34 33
-10.578256 -1.663770 -25.277813 38 36 35
-10.467530 -1.644246 -24.981174 36 37 33
-10.220215 -1.601294 -24.328606 33 34 32
-10.093207 -1.579376 -23.995605 32 33 31
-9.969629 -1.558050 -23.671597 36 36 36
-9.810901 -1.531292 -23.265059 28 28 28
-9.702208 -1.512402 -22.978058 31 28 30
-9.574288 -1.490566 -22.646307 34 31 33
-9.485537 -1.474876 -22.407925 36 32 37
-9.426689 -1.463870 -22.240702 40 37 39
-9.320386 -1.445531 -21.962078 33 32 34
-9.230148 -1.429727 -21.721970 32 32 32
-12.096476 -1.756119 -26.680878 17 21 16
-11.960887 -1.734381 -26.350611 14 18 13
-11.818293 -1.711680 -26.005707 21 22 18
-11.364351 -1.640121 -24.918512 22 23 19
-11.236799 -1.619806 -24.609861 22 21 17
-10.846516 -1.558050 -23.671597 19 17 16
-10.999827 -1.433907 -21.785482 17 15 15
-10.884222 -1.417330 -21.533628 16 14 14
-10.771259 -1.401132 -21.287529 30 25 27
-10.660851 -1.385300 -21.046991 24 19 21
-10.552908 -1.369822 -20.811831 24 19 20
-8.532906 -1.089164 -16.547773 42 46 47
-8.466574 -1.079574 -16.402060 48 53 54
-8.401399 -1.070150 -16.258888 50 55 58
-8.337352 -1.060890 -16.118195 46 52 59
-8.274405 -1.051788 -15.979915 51 58 67
-8.216895 -1.043396 -15.852415 49 54 63
-8.151694 -1.034046 -15.710354 47 50 55
-8.091879 -1.025397 -15.578955 55 58 62
-8.033055 -1.016892 -15.449737 52 55 59
-7.975200 -1.008527 -15.322643 44 49 50
-4.087247 -1.053588 -15.877752 40 35 37
-4.071908 -1.047450 -15.785244 38 33 35
-4.058885 -1.041931 -15.702076 40 35 37
-5.274075 -1.252429 -18.874313 23 24 28
-5.290909 -1.254017 -18.898251 20 22 23
-6.565098 -1.222996 -18.430761 21 26 25
-6.574993 -1.222996 -18.430761 24 26 26
-9.657532 -1.517717 -22.872250 38 35 37
-9.559760 -1.500444 -22.611942 39 36 38
-9.521331 -1.492517 -22.492483 38 34 39
-9.440780 -1.478016 -22.273947 46 43 45
-9.334143 -1.459472 -21.994495 40 38 38
-9.236881 -1.442440 -21.737812 37 35 35
-9.148458 -1.426829 -21.502554 30 31 29
-9.016877 -1.404535 -21.166578 32 33 31
-8.802050 -1.367625 -20.610332 25 30 28
-8.716664 -1.352657 -20.384775 26 31 29
-8.621462 -1.336206 -20.136852 41 46 44
-8.557109 -1.324571 -19.961514 34 39 37
-8.516487 -1.316635 -19.841906 27 32 30
-8.437262 -1.302757 -19.632767 29 31 31
-12.435206 -1.824341 -27.493118 15 20 18
-12.268876 -1.797805 -27.093220 21 25 20
-12.118174 -1.773619 -26.728737 12 16 11
-11.838954 -1.728658 -26.051172 17 18 14
-11.689451 -1.704815 -25.691845 21 22 18
-11.544017 -1.681620 -25.342297 13 14 10
-11.402486 -1.659048 -25.002132 20 21 17
-11.264705 -1.637074 -24.670979 22 21 17
-11.130526 -1.615674 -24.348482 22 21 17
-10.999809 -1.594827 -24.034307 19 17 16
-10.872423 -1.574510 -23.728138 18 16 16
-10.748241 -1.554705 -23.429670 26 23 25
-10.668561 -1.541376 -23.228792 25 22 24
-10.598425 -1.529455 -23.049143 28 23 24
-72.123772 -10.299923 -155.221573 20 23 21
-72.207100 -10.299923 -155.221573 28 28 28
-10.552908 -1.380995 -20.811831 22 19 21
-10.447351 -1.365736 -20.581865 26 22 21
-10.344101 -1.350810 -20.356928 23 20 15
-10.243084 -1.336206 -20.136852 23 22 12
-10.144227 -1.321915 -19.921484 28 28 14
-8.341864 -1.070122 -16.126917 50 56 61
-8.278843 -1.060936 -15.988487 51 56 65
-8.216895 -1.051907 -15.852415 54 59 68
-8.155993 -1.043030 -15.718639 57 61 66
-8.096110 -1.034302 -15.587103 49 54 55
-8.037222 -1.025718 -15.457749 50 55 56
-7.979302 -1.017276 -15.330525 55 63 63
-7.890124 -1.004871 -15.143568 55 63 63
-7.898254 -1.004871 -15.143568 50 58 58
-4.076388 -1.059291 -15.835569 33 30 32
-4.056867 -1.052024 -15.726934 38 35 37
-6.541263 -1.232129 -18.419371 21 23 24
-6.543064 -1.230608 -18.396629 19 24 23
-6.556988 -1.231368 -18.407993 10 15 14
-9.442937 -1.492205 -22.307291 43 38 40
-8.621462 -1.347017 -20.136852 43 45 45
-8.557109 -1.335288 -19.961514 49 51 51
-8.482602 -1.322006 -19.762959 45 47 47
-8.404044 -1.308127 -19.555473 46 46 46
-8.332530 -1.295377 -19.364874 42 42 42
-8.257083 -1.282048 -19.165621 35 35 35
-8.188384 -1.269799 -18.982510 32 32 32
-8.105644 -1.255406 -18.767344 34 32 32
-8.039778 -1.243659 -18.591728 36 37 35
-7.975132 -1.232129 -18.419371 46 47 45
-7.911674 -1.220811 -18.250177 40 43 41
-7.854137 -1.210434 -18.095047 34 36 36
-11.330361 -1.659938 -24.814772 20 21 19
-11.167020 -1.634086 -24.428312 19 20 18
-11.080231 -1.619484 -24.210026 19 19 19
-10.994979 -1.605141 -23.995605 15 15 15
-10.867857 -1.584726 -23.690414 12 11 13
-10.743928 -1.564824 -23.392889 25 24 26
-10.623073 -1.545415 -23.102745 31 29 29
-10.505178 -1.526482 -22.819710 32 30 30
-10.390139 -1.508007 -22.543526 34 30 29
-10.277850 -1.489974 -22.273947 24 21 17
-10.168216 -1.472367 -22.010738 26 23 19
-10.061141 -1.455172 -21.753679 26 26 20
-9.956539 -1.438373 -21.502554 27 29 23
-9.854325 -1.421958 -21.257162 25 29 23
-9.747543 -1.404923 -21.002495 17 21 16
-72.123772 -10.383256 -155.221573 15 21 16
-69.318817 -9.967926 -149.012711 23 26 24
-8.155993 -1.051469 -15.718639 52 59 62
-8.096110 -1.042670 -15.587103 46 57 55
-8.037222 -1.034017 -15.457749 46 57 55
-7.979302 -1.025507 -15.330525 51 62 60
-7.890124 -1.013001 -15.143568 52 63 61
-7.898254 -1.013001 -15.143568 53 64 62
-7.906384 -1.013001 -15.143568 53 61 60
-3.895210 -1.031085 -15.291196 27 26 28
-3.899417 -1.030028 -15.275520 38 37 39
-3.905616 -1.029501 -15.267695 35 32 34
-3.881994 -1.021131 -15.143568 38 35 37
-7.566801 -1.169724 -17.347229 39 41 42
-7.510539 -1.159599 -17.197081 36 35 37
-7.455242 -1.149648 -17.049509 37 33 38
-7.396691 -1.139221 -16.894865 44 41 43
-7.339193 -1.128980 -16.743000 44 40 45
-7.282719 -1.118923 -16.593842 46 43 45
-7.235229 -1.110268 -16.465492 46 45 47
-9.075833 -1.351436 -20.042059 23 30 27
-10.735501 -1.576145 -23.374542 19 18 20
-10.623073 -1.557818 -23.102745 24 24 24
-10.513228 -1.539912 -22.837196 22 20 19
-10.398005 -1.521261 -22.560591 24 22 21
-10.285538 -1.503055 -22.290607 29 28 24
-10.175731 -1.485281 -22.027008 20 20 14
-10.068491 -1.467922 -21.769569 13 15 9
-9.963728 -1.450964 -21.518080 14 18 12
-9.861359 -1.434393 -21.272335 18 25 18
-9.761301 -1.418197 -21.032139 12 18 13
-72.123772 -10.466590 -155.221573 11 18 13
-69.318817 -10.047926 -149.012711 17 24 21
-64.258163 -9.303636 -137.974731 23 30 27
-59.895535 -8.662005 -128.459229 20 26 25
-56.095821 -8.103167 -120.171539 24 29 28
-52.756680 -7.612065 -112.888412 19 22 20
-8.037222 -1.042316 -15.457749 44 57 55
-7.979302 -1.033737 -15.330525 39 53 49
-7.890124 -1.021131 -15.143568 41 55 51
-7.898254 -1.021131 -15.143568 41 55 51
-7.906384 -1.021131 -15.143568 44 55 53
-4.744150 -1.438626 -21.166578 74 68 73
-4.712008 -1.425465 -20.972935 87 82 84
-4.673930 -1.410575 -20.753859 80 75 77
-4.633446 -1.395031 -20.525166 70 68 68
-3.948091 -1.048983 -15.433734 37 33 38
-7.501881 -1.167484 -17.177258 51 51 51
-7.450980 -1.158139 -17.039761 45 42 44
-7.392501 -1.147640 -16.885292 47 42 43
-7.339193 -1.137969 -16.743000 52 47 49
-7.278666 -1.127204 -16.584608 52 47 48
-7.227242 -1.117873 -16.447319 48 46 45
-7.176663 -1.108695 -16.312283 45 46 44
-7.123041 -1.099070 -16.170668 38 41 39
-7.066540 -1.089024 -16.022871 41 47 42
-7.011062 -1.079161 -15.877752 34 42 35
-6.956581 -1.069475 -15.735238 40 48 41
-6.906682 -1.060516 -15.603425 38 45 38
-6.861176 -1.052252 -15.481839 42 46 41
-6.816373 -1.044116 -15.362135 42 43 41
-6.782666 -1.037697 -15.267695 40 41 39
-9.088057 -1.364030 -20.069052 27 36 33
-9.056142 -1.357631 -19.974894 22 29 26
-10.497141 -1.549797 -22.802250 25 26 24
-10.398005 -1.533373 -22.560591 24 25 23
-10.300946 -1.517292 -22.324001 22 23 19
-10.198343 -1.500433 -22.075956 22 24 18
-10.083221 -1.481774 -21.801420 23 27 21
-9.978137 -1.464631 -21.549198 17 24 17
-9.875457 -1.447881 -21.302746 18 26 19
-9.775098 -1.431509 -21.061867 18 25 20
-72.123772 -10.549923 -155.221573 17 27 21
-69.318817 -10.127926 -149.012711 15 24 21
-64.258163 -9.377709 -137.974731 22 31 28
-59.895535 -8.730970 -128.459229 21 29 28
-56.095821 -8.167683 -120.171539 19 27 26
-52.756680 -7.672671 -112.888412 19 26 23
-49.799156 -7.234233 -106.437645 21 27 22
-7.979302 -1.041968 -15.330525 62 78 71
-7.890124 -1.029261 -15.143568 47 63 56
-7.898254 -1.029261 -15.143568 38 52 48
-7.906384 -1.029261 -15.143568 47 58 56
-3.944006 -1.056174 -15.417766 32 28 33
-30.909584 -7.943911 -115.963196 39 34 35
-31.337650 -8.037737 -117.332840 32 30 30
-6.185090 -1.196709 -17.469250 22 18 23
-6.187215 -1.195307 -17.448795 19 17 23
-7.223256 -1.126081 -16.438246 50 48 47
-7.168816 -1.116230 -16.294445 47 48 44
-7.115319 -1.106550 -16.153139 50 53 51
-7.058949 -1.096447 -16.005661 47 51 46
-7.007329 -1.087106 -15.869298 40 46 41
-6.956581 -1.077922 -15.735238 45 51 46
-6.906682 -1.068893 -15.603425 45 49 44
-6.861176 -1.060564 -15.481839 50 51 47
-6.812861 -1.051821 -15.354220 50 48 47
-6.768795 -1.043755 -15.236473 47 45 44
-6.735652 -1.037391 -15.143568 46 42 41
-9.083399 -1.375731 -20.082575 31 39 38
-9.057560 -1.370191 -20.001705 37 43 42
-9.044019 -1.366523 -19.948153 36 43 40
-9.949361 -1.471943 -21.487051 25 31 26
-9.868402 -1.458275 -21.287529 18 25 20
-9.809761 -1.447933 -21.136555 17 26 23
-72.123772 -10.633256 -155.221573 20 31 28
-69.318817 -10.207926 -149.012711 12 23 20
-64.258163 -9.451783 -137.974731 18 29 27
-59.895535 -8.799936 -128.459229 24 35 33
-56.095821 -8.232199 -120.171539 21 32 30
-52.756680 -7.733277 -112.888412 22 31 28
-49.799156 -7.291376 -106.437645 22 29 26
-47.161366 -6.897247 -100.684258 20 23 21
-5.824540 -1.685164 -24.408306 79 74 75
-5.790222 -1.671475 -24.210026 68 66 66
-31.030325 -8.037442 -116.416176 31 26 27
-31.461515 -8.132748 -117.796608 35 33 33
-25.033804 -5.912601 -85.639488 61 62 66
-24.043427 -5.668279 -82.100662 70 69 73
-6.170622 -1.203266 -17.428387 20 17 19
-6.169156 -1.201159 -17.397863 20 19 23
-6.167695 -1.199059 -17.367449 19 18 20
-6.906682 -1.077270 -15.603425 53 54 52
-6.857614 -1.068321 -15.473802 49 47 46
-6.809353 -1.059519 -15.346313 53 51 50
-18.692408 -2.873722 -41.623661 41 42 38
-18.559229 -2.849841 -41.277756 46 49 47
-18.453594 -2.830241 -40.993866 33 38 39
-52.756680 -7.793883 -112.888412 17 25 24
-49.799156 -7.348518 -106.437645 17 23 22
-47.161366 -6.951302 -100.684258 24 26 26
-44.794113 -6.594824 -95.520966 25 25 25
-9.018641 -1.207503 -17.489754 31 26 27
-8.944049 -1.196270 -17.327059 26 24 24
-8.870831 -1.185245 -17.167362 21 21 21
-5.824540 -1.698268 -24.408306 85 79 80
-5.799644 -1.687213 -24.249424 75 73 73
-27.174261 -6.479954 -93.132942 39 38 40
-25.927868 -6.171384 -88.698036 47 46 48
-18.559229 -2.872002 -41.277756 47 52 50
-18.428247 -2.848331 -40.937557 42 47 48
-25.927868 -6.219004 -88.698036 41 40 42
-8.590980 -1.160881 -16.556967 17 21 16
-8.524099 -1.150653 -16.411091 18 22 16
-8.458386 -1.140603 -16.267763 26 27 23
-71.540436 -10.966590 -155.221573 111 115 116
-71.623772 -10.966590 -155.221573 98 102 103
-71.707100 -10.966590 -155.221573 93 97 98
-63.813721 -9.748079 -137.974731 88 92 93
-59.481739 -9.075798 -128.459229 83 88 89
-8.330345 -1.129606 -15.988487 27 20 17
-8.267960 -1.119992 -15.852415 29 22 19
-8.206626 -1.110541 -15.718639 30 25 24
-18.550112 -3.696141 -51.920803 14 11 7
-18.610407 -3.702592 -52.011414 16 14 13
-71.540436 -11.049923 -155.221573 147 151 152
-71.623772 -11.049923 -155.221573 141 145 146
-71.707100 -11.049923 -155.221573 136 140 141
-63.813721 -9.822154 -137.974731 129 133 134
-59.481739 -9.144764 -128.459229 117 122 125
-55.708725 -8.554779 -120.171539 109 116 119
-52.393044 -8.036307 -112.888412 92 101 105
-8.206626 -1.118980 -15.718639 30 25 24
-8.146320 -1.109616 -15.587103 28 23 22
-8.087014 -1.100407 -15.457749 22 18 17
-8.028685 -1.091350 -15.330525 21 19 18
-7.947034 -1.078041 -15.143568 24 25 23
-4.755851 -1.469131 -20.482845 80 74 79
-4.668746 -1.435584 -20.015139 85 79 84
-4.635904 -1.422212 -19.828703 81 76 78
-4.594581 -1.406306 -19.606936 81 75 80
-4.551211 -1.389847 -19.377464 79 76 78
-4.478830 -1.361519 -18.982510 76 75 77
-4.454970 -1.351192 -18.838522 74 73 75
-47.587681 -9.988716 -139.264206 10 11 9
-48.112091 -10.082949 -140.578018 12 13 11
-18.453663 -3.704654 -51.650852 7 5 4
-18.449419 -3.698244 -51.561489 15 13 12
-18.477100 -3.698244 -51.561489 21 22 20
-7.724166 -1.503224 -20.958187 18 16 16
-71.540436 -11.133256 -155.221573 179 183 184
-71.623772 -11.133256 -155.221573 180 184 185
-71.707100 -11.133256 -155.221573 172 176 177
-63.813721 -9.896228 -137.974731 157 161 162
-59.481739 -9.213729 -128.459229 140 143 147
-55.708725 -8.619295 -120.171539 139 144 147
-52.393044 -8.096913 -112.888412 123 129 134
-49.456299 -7.634233 -106.437645 95 104 108
-46.837040 -7.221571 -100.684258 85 94 98
-44.486423 -6.851234 -95.520966 84 93 97
-40.441174 -6.213911 -86.635292 60 66 71
-8.028685 -1.099581 -15.330525 20 21 19
-7.938904 -1.086171 -15.143568 20 21 19
-7.947034 -1.086171 -15.143568 20 21 19
-7.955164 -1.086171 -15.143568 17 18 16
-7.963295 -1.086171 -15.143568 24 25 23
-7.971425 -1.086171 -15.143568 28 27 23
-4.726614 -1.471028 -20.356928 83 75 82
-4.686327 -1.455125 -20.136852 81 73 80
-4.646901 -1.439562 -19.921484 87 79 86
-4.608309 -1.424329 -19.710676 83 76 81
-4.564551 -1.407572 -19.478785 76 69 76
-4.524734 -1.392104 -19.264732 75 71 76
-4.497284 -1.380503 -19.104193 73 74 78
-4.461779 -1.366488 -18.910242 75 76 80
-21.016174 -4.486636 -62.088627 15 14 16
-47.587681 -10.063482 -139.264206 5 3 2
-48.112091 -10.158421 -140.578018 4 2 1
-18.385799 -3.713078 -51.383690 17 15 15
-7.718738 -1.513412 -20.943459 19 14 15
-7.708314 -1.509170 -20.884752 21 15 16
-71.540436 -11.216590 -155.221573 181 183 184
-71.623772 -11.216590 -155.221573 189 191 192
-68.838821 -10.767926 -149.012711 187 189 190
-63.813721 -9.970302 -137.974731 174 178 179
-59.481739 -9.282695 -128.459229 174 177 181
-55.708725 -8.683811 -120.171539 163 168 171
-52.393044 -8.157519 -112.888412 143 150 153
-49.456299 -7.691376 -106.437645 123 130 133
-46.837040 -7.275626 -100.684258 114 120 125
-44.486423 -6.902517 -95.520966 96 102 107
-42.365131 -6.565809 -90.861404 81 87 92
-40.441174 -6.260422 -86.635292 69 74 77
-38.688232 -5.982181 -82.784836 74 76 76
-37.084476 -5.727620 -79.262077 71 72 70
-35.611641 -5.493840 -76.026894 69 67 66
-7.947034 -1.094301 -15.143568 17 20 18
-7.955164 -1.094301 -15.143568 18 19 17
-7.963295 -1.094301 -15.143568 25 26 24
-7.971425 -1.094301 -15.143568 26 24 23
-21.125553 -4.557952 -62.610382 9 11 11
-21.114809 -4.548397 -62.479122 12 14 14
-21.016174 -4.519969 -62.088627 21 20 22
-7.724166 -1.525728 -20.958187 23 17 18
-5.919879 -1.112608 -15.283355 11 14 12
-71.540436 -11.299923 -155.221573 188 190 191
-71.623772 -11.299923 -155.221573 196 198 199
-68.838821 -10.847926 -149.012711 194 196 197
-63.813721 -10.044376 -137.974731 187 189 190
-59.481739 -9.351661 -128.459229 187 188 192
-55.708725 -8.748327 -120.171539 175 178 182
-52.393044 -8.218125 -112.888412 151 156 159
-49.456299 -7.748518 -106.437645 136 143 146
-46.837040 -7.329680 -100.684258 126 133 136
-44.486423 -6.953799 -95.520966 110 117 120
-42.365131 -6.614589 -90.861404 94 100 105
-40.441174 -6.306934 -86.635292 91 96 99
-38.688232 -6.026626 -82.784836 81 83 83
-7.955164 -1.102432 -15.143568 8 9 7
-5.902593 -1.119091 -15.259877 15 17 17
-5.910785 -1.119091 -15.259877 4 6 6
-5.918978 -1.119091 -15.259877 16 18 18
-71.457100 -11.383256 -155.221573 172 173 177
-71.540436 -11.383256 -155.221573 183 182 186
-71.623772 -11.383256 -155.221573 195 194 198
-68.838821 -10.927926 -149.012711 188 187 191
-63.813721 -10.118450 -137.974731 192 193 197
-59.481739 -9.420626 -128.459229 181 183 184
-55.708725 -8.812843 -120.171539 161 165 166
-52.393044 -8.278732 -112.888412 145 149 150
-49.456299 -7.805662 -106.437645 138 143 144
-46.837040 -7.383734 -100.684258 125 130 131
-44.486423 -7.005081 -95.520966 117 122 123
-42.365131 -6.663370 -90.861404 104 109 112
-8.869323 -1.290954 -17.603392 24 23 27
-8.842214 -1.285638 -17.530907 22 21 25
-4.956348 -1.183012 -16.014261 16 17 13
-4.959616 -1.181742 -15.997069 16 17 13
-5.906880 -1.124980 -15.228687 5 7 7
-71.457100 -11.466590 -155.221573 179 179 185
-71.540436 -11.466590 -155.221573 173 172 176
-71.623772 -11.466590 -155.221573 186 185 189
-68.838821 -11.007926 -149.012711 172 171 175
-63.813721 -10.192524 -137.974731 166 165 169
-59.481739 -9.489592 -128.459229 161 163 164
-55.708725 -8.877359 -120.171539 158 160 161
-52.393044 -8.339338 -112.888412 143 147 148
-49.456299 -7.862804 -106.437645 129 133 134
-46.837040 -7.437788 -100.684258 126 131 132
-44.486423 -7.056363 -95.520966 116 121 122
-7.361669 -1.118692 -15.143568 18 17 19
-8.863069 -1.298105 -17.572252 20 19 21
-4.961680 -1.192891 -16.031490 19 20 16
-40.616924 -9.014574 -121.148544 13 16 14
-19.540554 -4.039317 -54.285137 0 2 3
-6.944091 -1.373968 -18.465019 8 10 10
-71.457100 -11.549923 -155.221573 174 172 178
-71.540436 -11.549923 -155.221573 182 178 184
-71.623772 -11.549923 -155.221573 189 185 191
-7.395489 -1.131999 -15.213140 16 15 17
-4.524270 -1.134952 -15.143568 17 15 15
-4.532400 -1.134952 -15.143568 16 16 16
-4.977746 -1.205389 -16.083401 18 19 15
-41.739597 -9.345545 -124.696823 19 22 20
-41.288280 -9.229691 -123.150993 19 22 20
-19.612000 -4.083337 -54.483624 7 9 10
-6.951406 -1.387320 -18.510895 10 12 13
-6.952707 -1.385599 -18.487928 12 14 14
-71.373772 -11.633256 -155.221573 154 154 160
-71.457100 -11.633256 -155.221573 163 161 167
-71.540436 -11.633256 -155.221573 167 163 169
-71.623772 -11.633256 -155.221573 169 165 170
-7.394872 -1.141331 -15.228687 29 27 27
-7.399266 -1.140748 -15.220910 23 22 24
-4.524270 -1.143082 -15.143568 18 16 16
-46.714512 -10.319199 -136.708908 7 7 7
-46.362560 -10.225388 -135.466095 3 3 3
-19.683969 -4.127679 -54.683563 6 5 7
-14.800616 -2.461253 -32.606720 72 75 79
-14.657753 -2.434616 -32.253834 75 77 78
-71.373772 -11.716590 -155.221573 140 141 145
-71.457100 -11.716590 -155.221573 154 155 159
-71.540436 -11.716590 -155.221573 156 155 159
-7.387322 -1.148333 -15.213140 20 18 18
-7.403048 -1.149507 -15.228687 22 22 22
-46.574265 -10.345138 -136.084656 4 4 4
-17.041420 -3.642420 -47.914055 0 2 3
-14.516359 -2.428280 -31.942701 81 81 81
-46.362560 -10.370842 -135.466095 3 5 5
-17.098164 -3.685921 -48.146271 2 4 5
-17.096394 -3.679976 -48.068615 1 3 3
-46.152779 -10.396313 -134.853134 5 7 7
-16.988384 -3.687938 -47.837143 7 9 10
-17.041420 -3.693867 -47.914055 0 4 5
-9.291017 -1.513561 -19.632767 34 33 37
-9.264936 -1.507602 -19.555473 31 30 34
-46.362560 -10.516296 -135.466095 3 3 3
-17.015697 -3.719590 -47.914055 5 4 6
-17.068863 -3.725580 -47.991211 2 6 7
-19.585777 -4.198884 -54.088097 5 9 10
-9.266599 -1.520095 -19.581171 39 39 45
-9.252794 -1.516111 -19.529844 26 29 34
-29.010572 -6.543779 -83.715004 2 2 2
-29.302446 -6.599391 -84.426460 3 2 4
-17.043098 -3.751345 -47.991211 4 3 5
-17.096394 -3.757396 -48.068615 1 5 6
-17.177610 -3.769555 -48.224174 0 3 4
-26.251268 -5.752062 -73.586517 1 3 4
-26.355850 -5.766300 -73.768669 5 4 8
-26.460953 -5.780609 -73.951714 10 6 11
-14.115479 -3.065244 -39.213871 7 6 10
-14.136531 -3.065244 -39.213871 5 4 8
-14.251343 -3.085543 -39.473564 3 5 6
-19.663803 -4.251068 -54.384197 1 5 6
-19.729002 -4.258840 -54.483624 2 6 7
-19.758251 -4.258840 -54.483624 4 10 9
-8.263652 -1.324380 -16.942888 21 27 26
-8.253979 -1.321376 -16.904448 22 28 27
-8.253691 -1.319878 -16.885292 25 30 31
-29.010572 -6.588723 -83.715004 7 7 7
-29.219671 -6.625947 -84.187965 1 0 2
-16.988384 -3.764984 -47.837143 6 6 6
-17.041420 -3.771037 -47.914055 4 6 6
-17.094627 -3.777110 -47.991211 2 7 6
-26.316246 -5.805904 -73.768669 1 3 3
-26.486975 -5.834789 -74.135674 7 6 8
-26.659409 -5.863963 -74.506355 10 7 9
-19.881483 -4.327648 -54.986237 1 5 6
-19.947807 -4.335647 -55.087875 3 7 8
-19.977383 -4.335647 -55.087875 7 11 12
-45.186333 -7.566404 -96.137230 48 47 51
-8.249299 -1.329697 -16.894865 40 41 39
-4.223457 -1.199993 -15.143568 26 27 25
-4.231587 -1.199993 -15.143568 28 29 27
-16.880007 -3.766484 -47.531963 6 7 5
-16.878605 -3.760486 -47.456276 0 2 0
-16.931042 -3.766484 -47.531963 2 5 3
-26.553026 -5.889240 -74.320549 7 7 7
-26.726225 -5.918760 -74.693085 9 7 7
-20.051510 -4.381420 -55.292282 11 15 16
-6.432904 -1.317849 -16.630882 14 9 11
-6.420336 -1.313451 -16.575384 18 16 16
-45.777004 -7.717599 -97.393929 39 42 47
-45.829292 -7.717599 -97.393929 40 44 49
-4.215327 -1.208123 -15.143568 35 31 30
-4.223457 -1.208123 -15.143568 28 26 25
-4.231587 -1.208123 -15.143568 25 23 22
-13.621018 -3.170114 -39.736721 2 1 3
-13.606069 -3.161682 -39.631039 4 3 5
-16.826334 -3.779945 -47.380829 8 9 5
-6.420336 -1.322350 -16.575384 16 13 15
-46.952229 -7.978474 -100.008530 42 45 53
-47.005917 -7.978474 -100.008530 36 42 49
-47.059608 -7.978474 -100.008530 39 47 54
-4.215327 -1.216253 -15.143568 25 23 23
-4.223457 -1.216253 -15.143568 24 22 21
-13.563516 -3.182959 -39.631039 4 1 3
-13.584792 -3.182959 -39.631039 5 4 6
-13.552005 -3.170311 -39.473564 4 3 5
-47.483944 -8.113848 -101.025566 40 46 53
-13.509621 -3.191504 -39.473564 8 5 7
-25.510141 -4.642746 -57.423008 30 35 34
-25.345629 -4.607237 -56.983826 39 41 41
-25.088400 -4.554982 -56.337505 45 47 47
-25.363531 -4.646715 -57.092991 27 32 31
-25.201071 -4.611379 -56.658825 39 41 42
-24.946924 -4.559371 -56.019814 34 36 37
-24.883453 -4.542295 -55.810001 36 38 39
-24.980686 -4.606764 -56.231209 19 21 22
-25.010876 -4.606764 -56.231209 30 29 33
-24.853491 -4.572257 -55.810001 37 36 40
-24.836941 -4.563711 -55.705685 40 39 43
-25.442924 -4.717054 -57.202576 15 14 18
-25.183613 -4.663350 -56.551311 20 19 23
-25.890163 -4.831221 -58.208088 19 15 21
-25.720472 -4.793770 -57.756863 28 24 30
-6.934328 -1.305498 -15.627971 15 13 19
-67.332176 -12.203849 -146.090881 95 100 101
-6.929572 -1.314578 -15.636170 29 28 32
-6.930694 -1.313200 -15.619781 23 21 27
-6.931813 -1.311825 -15.603425 18 15 24
-67.663864 -12.342784 -146.810547 84 87 91
-65.484589 -11.931358 -141.916855 99 104 107
-6.948904 -1.325058 -15.660820 19 17 23
-26.096193 -7.229588 -84.907524 11 16 17
-26.245741 -7.316863 -85.394104 12 17 18
-25.847221 -7.193198 -83.950821 7 13 12
-52.461834 -10.882584 -123.150993 24 22 28
-52.965683 -10.973271 -124.177254 25 24 28
-12.140867 -3.463510 -38.957569 14 17 15
-53.636135 -11.179685 -125.749115 27 26 30
-26.673986 -8.028872 -89.766693 19 22 20
-25.715258 -7.726334 -86.384178 27 31 26
-24.757002 -7.425028 -83.015434 30 34 29
-23.999363 -7.184866 -80.330299 32 36 30
-23.289200 -6.959753 -77.813423 25 30 21
-12.296769 -3.535259 -39.525917 11 15 10
-12.125018 -3.479876 -38.906712 11 14 12
-11.989387 -3.435032 -38.405334 12 15 13
-11.902636 -3.404323 -38.061993 12 13 11
-10.352359 -2.195704 -24.549046 35 31 36
-26.868582 -8.150715 -90.585228 21 23 23
-26.356440 -7.980908 -88.698036 24 27 25
-25.940830 -7.840892 -87.141930 24 30 25
-25.613152 -7.727911 -85.886284 17 23 18
-24.732677 -7.448848 -82.784836 25 32 25
-23.913576 -7.189237 -79.899574 27 35 25
-23.515167 -7.056803 -78.427742 17 25 15
-22.836132 -6.840778 -76.026894 24 32 22
-22.419409 -6.703963 -74.506355 29 33 27
-10.442399 -2.230936 -24.794127 15 11 16
-10.352359 -2.208884 -24.549046 19 16 18
-26.075998 -7.957479 -87.913101 24 26 26
-25.668880 -7.819088 -86.384178 28 31 29
-24.732677 -7.493292 -82.784836 19 27 20
-24.304533 -7.350368 -81.205833 18 26 19
-23.765329 -7.174429 -79.262077 23 30 23
-22.894537 -6.899195 -76.221329 22 29 22
-23.977859 -7.294584 -80.114357 22 26 20
-23.392052 -7.103626 -78.017120 24 28 22
-22.605463 -6.852488 -75.258942 26 30 24
-21.766417 -6.586372 -72.336266 36 37 33
-20.990103 -6.340152 -69.632103 34 35 31
-20.315495 -6.125474 -67.274361 33 31 30
-19.642187 -5.911950 -64.929283 30 28 27
-19.014238 -5.712811 -62.742191 36 31 32
-11.137160 -3.215148 -35.311066 15 15 15
-10.961308 -3.159005 -34.694458 12 12 12
-10.779159 -3.101240 -34.060047 13 15 15
-14.765141 -3.350105 -36.793259 4 6 7
-14.640298 -3.317341 -36.433426 4 6 6
-23.030319 -7.035013 -76.810669 39 36 32
-22.212812 -6.773164 -73.951714 31 28 24
-21.453979 -6.530108 -71.297943 30 26 25
-20.652330 -6.274909 -68.511589 32 28 27
-19.999475 -6.065745 -66.227867 31 26 27
-19.347132 -5.857479 -63.953949 34 29 30
-18.738098 -5.663040 -61.830997 29 27 27
-18.168200 -5.481095 -59.844460 28 26 25
-17.599541 -5.300166 -57.869011 36 33 29
-17.164015 -5.159896 -56.337505 36 33 29
-11.058545 -3.211277 -35.061813 7 9 9
-10.872706 -3.151946 -34.414021 12 14 14
-10.693609 -3.094768 -33.789730 9 14 13
-10.532624 -3.043016 -33.224682 6 11 10
-10.365568 -2.989688 -32.642433 7 12 11
-14.967122 -3.420533 -37.346542 3 5 6
-14.783391 -3.374024 -36.838741 1 3 4
-14.640298 -3.336901 -36.433426 1 3 4
-40.336895 -8.862289 -96.761497 15 10 11
-8.919438 -1.924954 -21.017307 36 34 34
-8.955986 -1.930400 -21.076761 42 42 42
-8.898080 -1.915498 -20.914064 49 49 49
-8.810384 -1.894230 -20.681847 48 48 48
-8.760692 -1.881175 -20.539312 47 47 47
-8.720657 -1.863198 -20.343031 17 14 16
-8.753423 -1.863198 -20.343031 19 16 18
-18.444738 -3.844486 -41.975410 4 2 8
-18.624664 -3.877252 -42.333157 0 0 3
-18.700518 -3.888298 -42.453762 7 3 8
-46.040436 -14.299923 -155.221573 47 47 47
-46.123768 -14.299923 -155.221573 45 45 45
-21.505428 -6.584137 -71.468925 31 26 25
-20.557812 -6.282804 -68.198036 33 28 27
-19.823269 -6.047544 -65.644363 31 26 27
-19.182476 -5.841671 -63.409660 35 30 31
-18.583876 -5.649352 -61.322102 30 28 28
-18.023434 -5.469293 -59.367611 23 21 21
-17.463900 -5.290145 -57.423008 31 27 26
-17.003304 -5.141545 -55.810001 37 34 30
-16.567875 -5.001066 -54.285137 29 27 26
-10.645331 -3.098855 -33.637180 4 9 8
-10.497515 -3.050650 -33.113934 5 11 10
-10.342911 -3.000640 -32.571083 6 12 11
-40.206356 -8.885389 -96.448349 15 10 11
-11.849685 -2.575596 -27.957355 33 28 29
-8.703795 -1.872841 -20.329155 29 27 27
-8.714709 -1.872841 -20.329155 22 20 20
-8.753423 -1.874120 -20.343031 12 9 11
-8.669658 -1.853873 -20.123255 13 8 10
-8.593425 -1.835284 -19.921484 16 11 13
-8.581176 -1.830390 -19.868361 22 17 19
-18.579210 -3.899979 -42.333157 7 5 11
-18.549240 -3.888931 -42.213230 8 7 11
-18.677727 -3.911090 -42.453762 11 7 12
-18.753948 -3.922265 -42.575058 10 6 11
-9.108711 -1.737712 -18.862368 34 40 35
-46.040436 -14.383256 -155.221573 65 64 66
-43.410606 -13.537183 -146.090881 59 59 59
-18.861431 -5.777375 -62.348412 36 31 32
-18.282923 -5.590253 -60.329029 35 33 33
-17.740713 -5.414873 -58.436356 28 26 26
-17.231489 -5.250162 -56.658825 30 26 25
-16.752331 -5.095176 -54.986237 37 33 32
-16.300652 -4.949078 -53.409573 31 29 29
-15.874153 -4.811124 -51.920803 30 28 28
-15.470786 -4.680653 -50.512783 30 30 30
-10.275531 -2.998464 -32.358894 11 16 17
-26.672266 -6.363100 -68.669449 11 6 7
-25.990501 -6.191895 -66.821838 5 3 3
-50.654770 -11.317972 -122.141563 10 8 8
-40.468285 -8.995392 -97.076683 12 7 8
-11.812512 -2.585754 -27.905001 25 19 20
-11.816430 -2.583335 -27.878897 34 29 30
-11.820340 -2.580921 -27.852842 47 44 46
-24.958923 -5.341558 -57.645145 16 15 19
-25.086920 -5.362301 -57.869011 19 17 23
-25.117989 -5.362301 -57.869011 21 20 29
-25.345917 -5.404276 -58.321999 17 18 28
-9.806468 -2.085789 -22.509472 27 31 42
-18.738916 -3.956426 -42.697052 11 10 14
-18.681545 -3.939494 -42.514324 11 10 14
-18.757889 -3.950766 -42.635967 10 9 13
-18.780777 -3.950766 -42.635967 8 6 12
-9.108711 -1.747839 -18.862368 25 33 23
-9.084340 -1.741226 -18.791010 27 31 25
-9.191447 -1.757852 -18.970427 32 27 29
-9.207493 -1.758971 -18.982510 36 29 34
-17.332880 -5.321044 -57.092991 28 26 26
-16.847145 -5.162798 -55.395058 33 28 29
-16.389465 -5.013692 -53.795200 32 27 28
-15.957480 -4.872956 -52.285160 28 26 26
-15.549085 -4.739906 -50.857578 30 30 30
-15.187627 -4.621606 -49.588253 33 33 33
-26.107576 -6.255823 -67.122841 6 4 4
-52.751125 -11.870022 -127.361290 10 10 10
-51.073402 -11.477625 -123.150993 11 9 9
-40.336895 -9.018134 -96.761497 11 9 9
-11.768436 -2.591031 -27.800879 22 15 18
-11.772380 -2.588616 -27.774969 37 30 33
-11.765362 -2.583800 -27.723293 45 40 42
-25.332870 -5.446246 -58.436356 17 18 22
-25.265163 -5.424971 -58.208088 13 17 22
-9.843642 -2.105827 -22.594799 35 42 51
-18.932991 -4.025486 -43.192089 6 5 9
-18.792765 -3.990783 -42.819744 5 4 8
-18.788757 -3.985058 -42.758308 8 7 11
-18.838741 -3.990783 -42.819744 0 0 6
-18.807684 -3.979348 -42.697052 15 18 23
-9.232586 -1.775950 -19.055332 36 31 33
-9.231011 -1.773682 -19.030996 36 29 32
-16.041985 -4.935663 -52.654667 33 28 30
-15.628460 -4.799974 -51.207115 31 28 30
-15.237063 -4.671547 -49.837025 32 31 33
-14.866065 -4.549813 -48.538342 34 33 35
-14.536985 -4.441312 -47.380829 28 30 30
-14.157286 -4.317751 -46.062660 33 35 35
-11.709818 -2.596269 -27.697529 15 8 11
-11.746521 -2.601104 -27.749107 20 11 14
-11.750478 -2.598684 -27.723293 30 21 24
-11.732619 -2.591452 -27.646141 36 29 34
-25.583691 -5.531852 -59.014935 6 11 12
-25.414074 -5.488379 -58.551163 15 24 27
-9.861417 -2.124399 -22.663528 22 34 40
-9.858590 -2.121173 -22.629112 23 35 41
-18.988029 -4.060443 -43.317646 2 3 7
-18.846922 -4.025339 -42.943142 6 7 11
-18.897205 -4.031147 -43.005108 5 8 13
-18.947636 -4.036973 -43.067257 15 19 24
-14.888503 -4.590826 -48.696964 27 26 28
-14.534656 -4.473862 -47.456276 29 28 30
-14.220472 -4.369495 -46.349209 26 25 27
-13.878429 -4.256948 -45.155365 29 29 29
-13.533575 -4.143931 -43.956551 30 30 30
-13.206557 -4.036760 -42.819744 30 31 29
-9.899056 -2.144722 -22.750031 15 30 33
-8.630307 -1.860652 -19.736782 0 4 7
-19.015667 -4.089643 -43.380699 3 4 8
-18.928747 -4.065970 -43.129581 3 4 8
-8.472292 -1.565229 -16.603086 29 34 35
-8.462348 -1.561748 -16.566170 25 30 31
-8.475953 -1.562617 -16.575384 22 26 27
-8.494301 -1.564357 -16.593842 19 23 24
-30.647461 -9.743398 -102.767380 75 81 80
-28.908323 -9.173978 -96.761497 72 80 79
-27.530134 -8.720942 -91.983154 69 77 76
-26.281658 -8.310545 -87.654533 66 74 73
-25.145403 -7.937037 -83.715004 64 72 71
-24.435324 -7.699142 -81.205833 59 64 65
-13.549946 -4.179860 -44.086597 33 31 31
-13.240641 -4.077323 -43.005108 32 30 30
-12.946146 -3.979697 -41.975410 26 24 24
-12.682870 -3.891991 -41.050331 36 32 31
-12.464545 -3.818358 -40.273705 33 29 28
-12.173602 -3.722774 -39.265533 36 33 29
-7.949185 -1.789478 -18.874313 6 8 9
-7.934194 -1.783829 -18.814735 4 3 5
-7.909342 -1.775981 -18.731955 6 5 7
-8.753036 -1.900192 -20.042059 0 7 10
-8.705253 -1.887498 -19.908176 3 8 11
-20.117481 -3.962953 -41.798794 22 21 25
-8.523944 -1.582075 -16.686752 22 29 32
-8.518594 -1.579422 -16.658772 18 23 26
-8.489573 -1.572390 -16.584608 22 27 30
-30.333664 -9.698243 -101.715157 75 81 80
-12.730974 -3.935714 -41.277756 32 27 28
-12.493573 -3.855611 -40.437641 34 29 30
-12.265643 -3.778704 -39.631039 31 26 27
-12.030942 -3.699981 -38.805393 26 24 23
-11.805821 -3.624471 -38.013447 34 33 29
-11.618752 -3.560884 -37.346542 32 32 26
-11.396029 -3.486608 -36.567535 31 31 25
-7.934194 -1.793930 -18.814735 4 6 7
-7.914317 -1.787161 -18.743736 4 6 7
-7.257268 -1.618215 -16.971834 21 20 22
-71.457100 -14.799923 -155.221573 68 77 80
-71.540436 -14.799923 -155.221573 67 76 79
-20.556332 -4.076880 -42.758308 25 21 26
-20.117481 -3.985393 -41.798794 19 15 20
-19.697893 -3.897922 -40.881401 21 17 22
-19.296328 -3.814208 -40.003410 24 20 26
-18.936531 -3.738928 -39.213871 25 21 27
-19.083130 -3.763689 -39.473564 30 25 34
-8.542468 -1.592817 -16.705460 23 30 33
-8.494301 -1.582174 -16.593842 22 29 32
-12.326324 -3.825415 -39.896305 36 31 33
-12.088812 -3.745197 -39.059689 30 27 29
-11.861057 -3.668274 -38.257435 23 23 23
-11.642470 -3.594447 -37.487473 26 26 26
-11.432508 -3.523533 -36.747894 30 31 29
-11.230669 -3.455363 -36.036930 26 29 27
-7.265544 -1.629182 -16.991186 13 12 14
-7.229328 -1.619028 -16.885292 8 7 9
-8.142012 -1.750971 -18.261360 23 33 33
-8.146824 -1.749899 -18.250177 24 31 34
-12.056428 -2.528836 -26.373930 65 73 73
-12.017413 -2.517696 -26.257746 52 59 62
-11.957762 -2.502264 -26.096796 56 63 66
-71.457100 -14.883256 -155.221573 71 82 86
-71.540436 -14.883256 -155.221573 70 79 83
-20.556332 -4.099835 -42.758308 28 27 29
-20.117481 -4.007833 -41.798794 21 20 24
-19.697893 -3.919870 -40.881401 19 18 22
-19.296328 -3.835685 -40.003410 22 20 26
-18.961481 -3.764934 -39.265533 23 21 27
-19.057888 -3.779875 -39.421352 22 20 26
-19.079052 -3.779875 -39.421352 23 21 27
-19.100216 -3.779875 -39.421352 27 23 29
-10.261186 -1.965327 -20.496933 28 25 27
-9.268447 -1.756352 -18.317480 27 24 26
-9.199124 -1.741368 -18.161207 28 25 27
-8.716694 -1.641347 -17.118059 17 25 25
-8.671098 -1.631042 -17.010582 16 24 24
-8.616297 -1.619028 -16.885292 19 27 27
-8.562297 -1.607191 -16.761833 13 21 21
-8.542468 -1.601785 -16.705460 15 23 23
-19.902348 -6.343455 -65.789276 78 73 72
-19.175718 -6.101030 -63.275036 73 65 65
-18.616798 -5.912727 -61.322102 70 65 64
-18.091345 -5.735699 -59.486111 65 58 61
-17.630610 -5.579777 -57.869011 60 53 56
-11.695904 -3.637450 -37.724735 25 24 26
-11.483578 -3.565242 -36.975857 19 21 21
-11.279518 -3.495846 -36.256134 27 29 29
-11.083250 -3.429099 -35.563892 19 24 22
-20.999617 -4.664911 -48.380749 34 38 43
-20.722822 -4.597736 -47.684067 20 24 29
-8.157006 -1.764018 -18.294991 33 40 43
-8.146824 -1.759697 -18.250177 23 30 33
-12.045768 -2.540747 -26.350611 63 70 73
-11.964705 -2.520689 -26.142580 59 66 69
-11.936856 -2.511875 -26.051172 61 68 71
-71.457100 -14.966590 -155.221573 69 80 84
-71.540436 -14.966590 -155.221573 69 78 82
-21.015806 -4.219655 -43.762909 22 26 27
-20.556332 -4.122791 -42.758308 21 23 24
-20.145735 -4.035934 -41.857502 21 22 26
-19.806570 -3.963566 -41.106953 16 17 21
-10.296594 -1.983151 -20.567661 23 22 24
-9.268447 -1.766186 -18.317480 27 24 26
-9.210350 -1.753255 -18.183369 26 23 25
-9.186482 -1.746860 -18.117046 29 28 32
-8.700895 -1.645810 -17.069038 20 28 28
-18.934515 -6.057831 -62.479122 76 71 70
-18.389763 -5.873141 -60.574272 71 66 65
-17.807001 -5.676985 -58.551163 70 63 66
-17.360926 -5.525020 -56.983826 75 69 74
-10.939651 -3.403516 -35.103111 28 33 31
-10.768245 -3.344427 -34.493683 33 36 34
-30.085047 -7.278552 -75.069374 1 0 2
-29.530281 -7.134778 -73.586517 1 0 2
-30.241827 -7.296932 -75.258942 2 1 3
-30.205954 -7.278552 -75.069374 5 4 6
-48.274956 -11.071208 -114.185982 4 1 3
-30.198492 -6.847358 -70.622131 16 15 17
-29.536489 -6.688855 -68.987366 13 12 14
-29.035826 -6.567239 -67.733047 10 9 11
-28.616920 -6.464396 -66.672348 13 12 14
-21.145275 -4.729272 -48.776665 36 42 47
-21.068020 -4.706165 -48.538342 28 34 39
-20.856302 -4.653116 -47.991211 2 8 13
-20.486198 -4.564906 -47.081425 2 7 10
-20.067640 -4.466129 -46.062660 0 0 3
-10.956219 -2.135688 -22.027008 31 30 39
-10.863663 -2.115362 -21.817381 34 33 42
-10.353757 -2.005264 -20.681847 26 28 29
-9.354692 -1.792547 -18.487928 29 28 32
-7.873864 -1.468285 -15.143568 20 25 23
-7.881994 -1.468285 -15.143568 31 36 34
-31.418945 -11.090020 -113.750160 77 66 69
-30.211588 -10.643169 -109.166817 79 65 69
-28.693624 -10.088838 -103.481049 75 59 66
-27.146767 -9.526509 -97.713249 81 66 70
-25.763241 -9.023557 -92.554474 79 67 67
-16.418346 -5.244739 -53.795200 72 68 74
-15.985550 -5.097518 -52.285160 65 61 66
-65.207100 -15.133256 -155.221573 3 1 0
-61.150066 -14.173586 -145.378250 9 7 6
-56.539474 -13.088222 -134.245682 11 6 7
-53.479847 -12.364192 -126.819321 14 9 10
-50.740982 -11.716069 -120.171539 15 10 12
-48.090702 -11.090020 -113.750160 12 7 9
-45.380444 -10.451745 -107.203384 15 9 14
-40.408192 -9.283020 -95.215790 18 15 17
-36.967239 -8.471094 -86.887878 15 15 15
-35.762714 -8.184747 -83.950821 12 14 14
-30.127100 -6.868996 -70.455177 16 15 17
-29.332790 -6.679506 -68.511589 16 15 17
-28.969986 -6.588629 -67.579460 13 12 14
-28.616920 -6.500191 -66.672348 6 5 7
-28.273209 -6.414095 -65.789276 13 12 16
-28.122290 -6.371897 -65.356453 19 19 25
-21.390337 -4.810572 -49.341957 36 42 47
-21.171463 -4.755459 -48.776665 15 21 26
-20.957546 -4.701594 -48.224174 0 5 8
-20.518614 -4.597445 -47.155918 0 4 7
-20.067640 -4.490858 -46.062660 2 5 9
-19.696611 -4.402402 -45.155365 8 9 13
-19.197292 -4.285524 -43.956551 4 6 7
-11.184112 -2.194551 -22.509472 29 29 35
-11.046023 -2.165116 -22.207556 26 23 32
-10.943779 -2.142762 -21.978275 27 26 35
-10.843623 -2.120865 -21.753679 33 33 39
-10.440702 -2.033300 -20.855522 31 33 34
-10.400949 -2.023388 -20.753859 30 32 33
-9.430746 -1.817127 -18.638237 29 27 33
-9.364617 -1.802472 -18.487928 24 22 28
-9.027819 -1.728486 -17.729055 22 26 31
-7.905906 -1.483956 -15.220910 20 27 24
-7.873864 -1.476415 -15.143568 24 29 27
-7.881994 -1.476415 -15.143568 32 37 35
-7.890124 -1.476415 -15.143568 24 27 25
-26.368673 -9.304412 -94.912552 78 64 68
-15.709937 -5.037216 -51.383690 73 72 81
-15.315040 -4.901989 -50.004265 64 62 68
-14.989777 -4.789484 -48.856625 69 68 72
-14.726308 -4.697083 -47.914055 56 55 57
-65.123772 -15.216590 -155.221573 11 9 8
-65.207100 -15.216590 -155.221573 13 11 10
-59.694111 -13.912311 -141.916855 13 11 10
-55.785618 -12.984823 -132.455734 10 6 5
-53.028538 -12.327364 -125.749115 9 4 5
-50.335056 -11.686341 -119.210167 12 7 9
-47.546280 -11.024850 -112.462418 15 10 12
-45.056297 -10.434233 -106.437645 17 11 16
-42.531189 -9.836987 -100.345253 17 11 16
-40.537704 -9.364055 -95.520966 18 13 15
-38.609035 -8.907272 -90.861404 15 12 14
-37.075333 -8.542646 -87.141930 14 12 12
-35.863739 -8.253065 -84.187965 15 15 15
-30.127100 -6.906821 -70.455177 16 14 14
-29.265512 -6.700883 -68.354454 12 10 10
-28.904442 -6.609921 -67.426567 12 10 10
-28.616920 -6.535985 -66.672348 5 2 4
-28.335760 -6.463684 -65.934822 10 9 13
-21.568888 -4.877438 -49.753826 6 13 16
-21.381428 -4.829066 -49.260399 1 6 9
-20.991512 -4.735146 -48.302334 2 7 10
-20.486198 -4.615458 -47.081425 0 3 7
-20.067640 -4.515588 -46.062660 4 8 9
-19.696611 -4.426644 -45.155365 3 5 6
-11.295014 -2.228517 -22.732677 37 36 40
-11.204659 -2.208303 -22.526485 36 32 38
-10.931394 -2.149805 -21.929758 34 32 38
-10.839478 -2.129435 -21.721970 32 32 38
-10.741532 -2.107926 -21.502554 31 32 36
-10.668406 -2.091328 -21.333244 23 26 30
-10.555310 -2.064724 -21.061867 34 36 36
-10.470423 -2.045928 -20.870127 37 36 38
-10.423234 -2.034530 -20.753859 42 41 43
-9.811856 -1.907040 -19.453356 27 28 32
-9.434853 -1.825991 -18.626589 34 34 40
-9.368731 -1.811274 -18.476467 25 25 31
-9.303668 -1.796793 -18.328747 28 28 34
-9.239636 -1.782541 -18.183369 19 22 27
-9.081845 -1.748405 -17.835154 33 36 41
-9.075128 -1.745272 -17.803190 28 31 35
-9.030739 -1.734908 -17.697472 31 36 39
-8.976275 -1.722633 -17.572252 31 36 37
-8.901731 -1.706533 -17.408026 33 37 38
-8.828567 -1.690732 -17.246841 35 39 40
-7.934271 -1.497481 -15.275520 35 42 37
-7.873864 -1.484545 -15.143568 36 43 38
-7.881994 -1.484545 -15.143568 39 44 42
-7.890124 -1.484545 -15.143568 44 47 45
-43.707104 -15.299923 -155.221573 74 73 75
-43.790436 -15.299923 -155.221573 62 61 65
-39.180298 -13.663187 -138.616470 69 67 73
-34.797382 -12.088828 -122.644203 78 77 81
-14.356997 -4.604365 -46.712448 71 70 72
-14.094875 -4.512420 -45.779633 64 63 65
-65.123772 -15.299923 -155.221573 11 9 8
-65.207100 -15.299923 -155.221573 10 8 7
-62.058235 -14.542501 -147.537338 13 11 10
-57.842228 -13.537259 -137.338898 14 10 9
-54.171394 -12.662005 -128.459229 12 7 8
-50.134518 -11.703526 -118.735222 13 8 9
-47.190125 -11.002192 -111.620003 13 8 10
-44.736752 -10.416968 -105.682770 11 5 10
-12.045559 -2.399988 -24.348482 39 41 42
-11.903035 -2.369020 -24.034307 35 34 36
-11.764143 -2.338842 -23.728138 41 40 42
-11.628745 -2.309422 -23.429670 43 39 44
-11.496711 -2.280734 -23.138618 43 39 44
-11.367917 -2.252749 -22.854710 41 37 43
-11.242246 -2.225443 -22.577682 47 43 49
-11.119583 -2.198791 -22.307291 38 36 42
-10.999825 -2.172770 -22.043299 37 38 42
-10.882868 -2.147358 -21.785482 38 39 43
-10.768616 -2.122533 -21.533628 41 45 46
-10.656974 -2.098275 -21.287529 41 46 45
-10.547855 -2.074566 -21.046991 37 42 41
-10.441175 -2.051386 -20.811831 44 46 47
-10.336853 -2.028719 -20.581865 51 53 54
-10.234811 -2.006547 -20.356928 45 47 48
-10.134975 -1.984855 -20.136852 46 47 51
-10.037275 -1.963627 -19.921484 39 40 44
-9.941643 -1.942847 -19.710676 35 36 40
-9.848013 -1.922503 -19.504280 38 39 43
-7.873864 -1.492675 -15.143568 41 48 43
-7.881994 -1.492675 -15.143568 35 40 38
-43.623768 -15.383256 -155.221573 75 74 78
-43.707104 -15.383256 -155.221573 65 65 71
-43.790436 -15.383256 -155.221573 63 66 71
-39.180298 -13.737606 -138.616470 68 70 78
-36.694626 -12.841675 -129.576263 58 57 66
-34.373024 -12.006444 -121.148544 68 65 74
-32.458866 -11.316419 -114.185982 67 63 69
-8.465586 -2.729746 -27.543938 66 68 69
-8.364415 -2.692420 -27.167313 74 76 77
-8.273415 -2.658493 -26.824970 68 70 70
-8.191960 -2.627745 -26.514717 59 61 61
-8.184351 -2.620750 -26.444136 60 63 61
-8.607262 -2.242661 -22.629112 2 7 6
-8.522346 -2.217406 -22.374281 7 9 9
-8.445590 -2.194343 -22.141562 5 4 6
-8.078985 -2.087339 -21.061867 3 5 6
-7.999835 -2.064001 -20.826374 5 7 8
-7.933401 -2.044003 -20.624596 4 6 7
-7.862852 -2.023004 -20.412699 2 4 5
-7.799026 -2.003789 -20.218821 3 5 6
-7.741603 -1.986271 -20.042059 2 4 4
-7.644406 -1.958611 -19.762959 9 9 9
-7.574648 -1.938048 -19.555473 8 8 8
-7.501469 -1.916668 -19.339741 6 6 6
-7.429887 -1.895754 -19.128717 5 5 5
-7.378589 -1.880067 -18.970427 3 4 2
-7.314281 -1.861112 -18.779169 9 7 6
-7.251256 -1.842536 -18.591728 10 6 5
