ply
format ascii 1.0
element vertex 1208
property float x
property float y
property float z
property uchar red
property uchar green
property uchar blue
end_header
-4.441152 0.571636 -21.728746 101 94 75
3.655250 0.580797 -22.540882 93 86 71
3.599121 0.573794 -22.269100 94 87 72
3.488260 0.559871 -21.728746 92 85 70
3.476495 0.559871 -21.728746 92 83 70
3.464730 0.559871 -21.728746 92 78 72
3.452965 0.559871 -21.728746 98 84 78
3.441201 0.559871 -21.728746 97 88 75
18.454315 3.033564 -117.733452 81 78 64
1.970613 0.559871 -21.728746 28 9 12
1.958848 0.559871 -21.728746 31 12 15
1.935319 0.559871 -21.728746 30 9 11
1.923554 0.559871 -21.728746 36 14 16
1.911789 0.559871 -21.728746 39 15 15
1.075167 0.805740 -31.271000 74 20 19
-1.491445 1.843643 -71.552292 108 98 80
-3.278265 1.962434 -76.162621 27 21 16
-3.319502 1.962434 -76.162621 20 16 11
-3.360739 1.962434 -76.162621 16 11 8
-4.684818 2.607618 -101.202385 10 9 5
-2.075514 0.756883 -29.374847 17 13 12
-2.081075 0.753140 -29.229570 23 18 15
-50.416321 7.931505 -307.823914 108 98 80
-4.358799 0.559871 -21.728746 104 98 87
-4.370564 0.559871 -21.728746 102 96 83
-4.382329 0.559871 -21.728746 104 98 85
-4.394093 0.559871 -21.728746 104 97 82
-4.405858 0.559871 -21.728746 104 97 82
-4.417623 0.559871 -21.728746 105 97 80
-4.429388 0.559871 -21.728746 105 95 78
-4.441152 0.559871 -21.728746 98 91 72
3.655250 0.568592 -22.540882 92 85 70
3.599121 0.561737 -22.269100 91 84 69
3.488260 0.548106 -21.728746 90 83 68
3.476495 0.548106 -21.728746 92 83 70
3.464730 0.548106 -21.728746 93 79 73
3.452965 0.548106 -21.728746 94 80 74
1.970613 0.548106 -21.728746 26 7 10
1.958848 0.548106 -21.728746 28 9 12
1.947083 0.548106 -21.728746 32 11 14
1.935319 0.548106 -21.728746 35 12 16
1.923554 0.548106 -21.728746 37 13 15
-3.278265 1.921197 -76.162621 26 20 15
-3.319502 1.921197 -76.162621 19 12 9
-3.360739 1.921197 -76.162621 13 8 5
-2.059609 0.740979 -29.374847 14 12 12
-2.075514 0.740979 -29.374847 10 8 8
-2.081075 0.737314 -29.229570 22 18 17
-50.082989 7.764838 -307.823914 105 97 80
-50.249653 7.764838 -307.823914 106 99 80
-50.416321 7.764838 -307.823914 106 99 80
-4.358799 0.548106 -21.728746 102 96 83
-4.370564 0.548106 -21.728746 100 94 81
-4.382329 0.548106 -21.728746 102 96 83
-4.394093 0.548106 -21.728746 101 94 79
-4.405858 0.548106 -21.728746 104 97 82
-4.417623 0.548106 -21.728746 104 96 79
-4.429388 0.548106 -21.728746 102 95 76
3.488260 0.536341 -21.728746 87 79 62
3.476495 0.536341 -21.728746 94 85 71
3.464730 0.536341 -21.728746 100 87 79
3.452965 0.536341 -21.728746 95 82 74
1.970613 0.536341 -21.728746 25 8 11
1.958848 0.536341 -21.728746 27 7 12
1.947083 0.536341 -21.728746 31 9 14
1.935319 0.536341 -21.728746 32 9 13
1.923554 0.536341 -21.728746 34 10 12
1.911789 0.536341 -21.728746 37 10 13
1.783333 0.647801 -26.244312 68 16 10
1.769124 0.647801 -26.244312 74 22 16
-0.317039 0.741285 -30.031601 105 98 83
-0.333300 0.741285 -30.031601 103 96 81
-49.916321 7.598171 -307.823914 102 96 77
-50.082989 7.598171 -307.823914 105 99 80
-50.249653 7.598171 -307.823914 108 101 84
-50.416321 7.598171 -307.823914 104 97 80
-26.285538 3.859389 -156.355011 104 97 82
-4.347034 0.536341 -21.728746 103 96 81
-4.358799 0.536341 -21.728746 101 93 80
-4.370564 0.536341 -21.728746 101 95 82
-4.382329 0.536341 -21.728746 98 92 79
-4.394093 0.536341 -21.728746 97 92 77
-4.405858 0.536341 -21.728746 101 96 81
-4.417623 0.536341 -21.728746 101 94 77
3.488260 0.524577 -21.728746 87 79 62
3.476495 0.524577 -21.728746 93 84 70
3.464730 0.524577 -21.728746 92 83 70
1.970613 0.524577 -21.728746 25 8 11
1.958848 0.524577 -21.728746 29 9 14
1.947083 0.524577 -21.728746 32 10 15
1.935319 0.524577 -21.728746 32 9 13
1.923554 0.524577 -21.728746 33 9 11
1.911789 0.524577 -21.728746 36 12 14
1.900024 0.524577 -21.728746 39 12 15
1.797543 0.633592 -26.244312 70 19 16
1.783333 0.633592 -26.244312 68 18 12
-0.317362 0.725762 -30.062153 108 101 86
-0.333300 0.725025 -30.031601 106 99 84
-4.870834 2.876711 -119.157646 33 23 16
-4.935350 2.876711 -119.157646 33 23 16
-4.999866 2.876711 -119.157646 29 20 16
-2.975792 1.148832 -47.586304 24 14 14
-1.829865 0.589120 -24.402225 23 21 20
-49.916321 7.431505 -307.823914 100 94 75
-50.082989 7.431505 -307.823914 105 99 80
-50.249653 7.431505 -307.823914 104 97 80
-26.285538 3.774733 -156.355011 103 98 83
-22.449192 3.142839 -130.181046 101 97 78
-4.347034 0.524577 -21.728746 104 97 82
-4.358799 0.524577 -21.728746 101 94 79
-4.370564 0.524577 -21.728746 100 94 81
-4.382329 0.524577 -21.728746 98 92 79
-4.394093 0.524577 -21.728746 100 95 80
-4.405858 0.524577 -21.728746 103 98 83
-4.447052 0.528071 -21.873497 98 94 76
-4.458895 0.528071 -21.873497 97 93 74
3.528564 0.516994 -21.905928 89 83 64
3.488260 0.512812 -21.728746 87 80 61
3.476495 0.512812 -21.728746 90 82 65
3.464730 0.512812 -21.728746 93 84 70
3.452965 0.512812 -21.728746 92 85 70
1.970613 0.512812 -21.728746 28 9 12
1.958848 0.512812 -21.728746 31 10 13
1.947083 0.512812 -21.728746 32 11 14
1.935319 0.512812 -21.728746 32 11 14
1.923554 0.512812 -21.728746 32 11 13
1.911789 0.512812 -21.728746 34 13 15
1.900024 0.512812 -21.728746 35 15 14
1.783333 0.619382 -26.244312 69 19 13
-0.170176 0.780990 -33.091934 105 98 81
-0.317362 0.709486 -30.062153 104 100 82
-0.333639 0.709486 -30.062153 104 100 82
-2.815321 1.341201 -56.829029 8 5 1
-2.975792 1.123067 -47.586304 24 15 12
-1.798984 0.574485 -24.341925 21 15 16
-1.812164 0.574485 -24.341925 13 11 11
-1.829865 0.575908 -24.402225 12 12 12
-1.837010 0.574012 -24.321890 13 10 12
-1.851702 0.574485 -24.341925 10 9 11
-49.916321 7.264838 -307.823914 101 94 77
-50.082989 7.264838 -307.823914 106 99 82
-50.416321 7.264838 -307.823914 107 98 84
-26.285538 3.690076 -156.355011 104 97 82
-22.449192 3.072354 -130.181046 102 98 79
-4.358799 0.512812 -21.728746 101 93 80
-4.370564 0.512812 -21.728746 103 95 82
-4.382329 0.512812 -21.728746 101 93 80
-4.394093 0.512812 -21.728746 102 95 80
-4.431928 0.515846 -21.857319 104 97 82
-4.447052 0.516228 -21.873497 101 97 79
-4.458895 0.516228 -21.873497 102 98 79
3.528564 0.505133 -21.905928 90 84 65
3.488260 0.501047 -21.728746 89 82 63
3.476495 0.501047 -21.728746 92 86 67
3.464730 0.501047 -21.728746 89 83 64
44.583679 7.098171 -307.823914 36 13 17
1.970613 0.501047 -21.728746 32 11 14
1.958848 0.501047 -21.728746 28 7 10
1.947083 0.501047 -21.728746 33 12 14
1.935319 0.501047 -21.728746 33 15 16
1.923554 0.501047 -21.728746 33 15 14
0.064730 0.501047 -21.728746 107 95 83
0.052966 0.501047 -21.728746 106 97 84
-0.170176 0.763073 -33.091934 103 96 81
-0.333639 0.693209 -30.062153 103 99 81
-2.784552 1.310432 -56.829029 12 9 4
-2.815321 1.310432 -56.829029 11 6 3
-2.846090 1.310432 -56.829029 12 9 5
-2.876859 1.310432 -56.829029 14 9 8
-2.975792 1.097302 -47.586304 22 13 10
-3.001557 1.097302 -47.586304 37 28 25
-3.003142 1.088537 -47.206223 42 31 27
-3.028701 1.088537 -47.206223 51 39 33
-3.054260 1.088537 -47.206223 61 49 39
-1.812164 0.561305 -24.341925 9 6 8
-1.829865 0.562696 -24.402225 11 8 10
-1.837010 0.560843 -24.321890 11 8 10
-1.851702 0.561305 -24.341925 9 8 10
-2.935270 0.501047 -21.728746 108 99 85
-2.947034 0.501047 -21.728746 107 98 84
-49.916321 7.098171 -307.823914 104 97 80
-50.249653 7.098171 -307.823914 105 96 82
-50.416321 7.098171 -307.823914 106 97 83
-50.582989 7.098171 -307.823914 107 98 84
-22.449192 3.001870 -130.181046 102 98 79
-4.358799 0.501047 -21.728746 102 94 81
-4.370564 0.501047 -21.728746 103 95 82
-4.382329 0.501047 -21.728746 101 93 80
-4.394093 0.501047 -21.728746 101 94 79
-4.431928 0.504012 -21.857319 102 95 80
-4.443762 0.504012 -21.857319 103 99 81
-4.458895 0.504385 -21.873497 106 102 83
3.528564 0.493272 -21.905928 91 85 66
3.488260 0.489283 -21.728746 87 81 62
3.476495 0.489283 -21.728746 88 82 63
44.583679 6.931505 -307.823914 34 11 15
44.417011 6.931505 -307.823914 36 11 15
15.358647 3.138794 -139.391968 36 24 24
1.970613 0.489283 -21.728746 34 12 14
1.958848 0.489283 -21.728746 31 9 11
1.947083 0.489283 -21.728746 34 12 14
1.935319 0.489283 -21.728746 34 13 15
1.923554 0.489283 -21.728746 31 13 12
0.064730 0.489283 -21.728746 104 95 81
0.052966 0.489283 -21.728746 107 98 84
-0.170176 0.745156 -33.091934 106 99 84
-2.784552 1.279662 -56.829029 17 14 6
-2.815321 1.279662 -56.829029 10 4 0
-2.846090 1.279662 -56.829029 12 8 3
-2.876859 1.279662 -56.829029 13 6 3
-2.924262 1.071537 -47.586304 28 22 17
-2.950027 1.071537 -47.586304 27 21 16
-2.975792 1.071537 -47.586304 25 16 13
-1.812164 0.548126 -24.341925 11 6 8
-1.829865 0.549483 -24.402225 14 9 11
-1.837010 0.547674 -24.321890 14 9 11
-1.851702 0.548126 -24.341925 15 10 11
-29.582987 6.931505 -307.823914 105 96 83
-29.749655 6.931505 -307.823914 103 95 82
-2.935270 0.489283 -21.728746 106 98 81
-2.947034 0.489283 -21.728746 104 96 79
-2.958799 0.489283 -21.728746 103 96 79
-50.916321 6.931505 -307.823914 107 96 82
-51.082989 6.931505 -307.823914 109 98 84
-51.249653 6.931505 -307.823914 108 97 83
-11.111043 1.369186 -60.804722 101 93 80
-11.143965 1.369186 -60.804722 106 98 85
-11.176887 1.369186 -60.804722 104 97 82
-4.358799 0.489283 -21.728746 104 95 85
-4.370564 0.489283 -21.728746 101 92 82
-4.382329 0.489283 -21.728746 100 92 79
-4.394093 0.489283 -21.728746 101 94 79
-4.405858 0.489283 -21.728746 102 95 80
-4.417623 0.489283 -21.728746 103 96 79
44.583679 6.764838 -307.823914 32 9 13
44.417011 6.764838 -307.823914 38 14 16
15.364641 3.034694 -138.089233 36 18 17
15.289875 3.034694 -138.089233 39 25 26
15.358647 3.063323 -139.391968 37 25 25
1.970613 0.477518 -21.728746 33 11 13
1.958848 0.477518 -21.728746 36 12 14
1.947083 0.477518 -21.728746 35 11 13
1.935319 0.477518 -21.728746 30 9 8
4.777843 1.288541 -58.633125 41 16 14
4.746098 1.288541 -58.633125 49 20 16
0.064730 0.477518 -21.728746 106 97 83
0.052966 0.477518 -21.728746 107 99 82
0.009979 0.806738 -36.709435 99 95 77
-2.695208 1.393615 -63.414368 21 17 12
-2.747228 1.402645 -63.825260 16 13 9
-2.781786 1.402645 -63.825260 15 12 8
-2.816343 1.402645 -63.825260 15 11 10
-2.815321 1.248893 -56.829029 11 2 0
-2.846090 1.248893 -56.829029 32 23 19
-2.876859 1.248893 -56.829029 39 30 27
-1.812164 0.534946 -24.341925 22 14 15
-1.829865 0.536271 -24.402225 20 10 10
-1.837010 0.534506 -24.321890 17 8 5
-1.851702 0.534946 -24.341925 19 10 7
-29.416321 6.764838 -307.823914 100 93 78
-29.582987 6.764838 -307.823914 112 104 91
-29.749655 6.764838 -307.823914 98 90 77
-29.916321 6.764838 -307.823914 103 95 82
-30.082987 6.764838 -307.823914 106 98 85
-2.947034 0.477518 -21.728746 102 94 77
-2.958799 0.477518 -21.728746 102 95 78
-2.970564 0.477518 -21.728746 103 96 79
-2.982328 0.477518 -21.728746 106 99 84
-50.916321 6.764838 -307.823914 106 95 81
-51.082989 6.764838 -307.823914 107 96 82
-51.249653 6.764838 -307.823914 108 97 83
-11.176887 1.336264 -60.804722 106 99 84
-4.358799 0.477518 -21.728746 105 96 86
-4.370564 0.477518 -21.728746 103 94 84
-4.382329 0.477518 -21.728746 104 95 85
-4.394093 0.477518 -21.728746 103 95 82
-4.405858 0.477518 -21.728746 101 94 79
-4.417623 0.477518 -21.728746 102 95 78
-4.429388 0.477518 -21.728746 102 96 77
44.417011 6.598171 -307.823914 39 15 17
15.364641 2.959927 -138.089233 45 30 28
15.289875 2.959927 -138.089233 44 32 32
15.358647 2.987851 -139.391968 36 25 27
1.970613 0.465753 -21.728746 35 11 11
1.958848 0.465753 -21.728746 37 11 11
1.947083 0.465753 -21.728746 39 11 11
1.935319 0.465753 -21.728746 34 8 8
4.777843 1.256795 -58.633125 43 16 12
4.746098 1.256795 -58.633125 51 19 14
0.009979 0.786863 -36.709435 104 97 80
-3.138206 4.872496 -227.316116 106 101 86
-3.261283 4.872496 -227.316116 104 99 84
-3.384360 4.872496 -227.316116 104 98 85
-2.695208 1.359280 -63.414368 16 12 7
-2.729542 1.359280 -63.414368 25 22 18
-1.829865 0.523059 -24.402225 39 25 19
-1.837010 0.521337 -24.321890 32 16 9
-1.851702 0.521766 -24.341925 36 21 12
-1.932372 0.522197 -24.361992 21 13 13
-1.945562 0.522197 -24.361992 19 15 10
-28.916321 6.598171 -307.823914 52 45 30
-29.082987 6.598171 -307.823914 61 54 39
-29.249655 6.598171 -307.823914 91 86 71
-29.416321 6.598171 -307.823914 103 98 83
-29.582987 6.598171 -307.823914 98 93 78
-29.749655 6.598171 -307.823914 105 100 85
-29.916321 6.598171 -307.823914 100 95 80
-30.082987 6.598171 -307.823914 103 98 83
-2.935270 0.465753 -21.728746 104 97 78
-2.947034 0.465753 -21.728746 102 95 76
-2.958799 0.465753 -21.728746 104 97 80
-50.916321 6.598171 -307.823914 106 95 81
-51.082989 6.598171 -307.823914 106 95 81
-11.088227 1.300666 -60.679867 105 97 84
-11.121081 1.300666 -60.679867 101 93 80
-11.153936 1.300666 -60.679867 105 98 83
-4.358799 0.465753 -21.728746 105 96 86
-4.370564 0.465753 -21.728746 106 96 86
-4.382329 0.465753 -21.728746 107 97 87
-4.394093 0.465753 -21.728746 105 96 83
-4.405858 0.465753 -21.728746 101 92 78
-4.417623 0.465753 -21.728746 103 95 78
-4.429388 0.465753 -21.728746 103 97 78
15.511893 2.898706 -138.737534 49 34 32
15.364641 2.885161 -138.089233 44 30 31
1.970613 0.453989 -21.728746 35 11 11
1.958848 0.453989 -21.728746 37 9 9
1.947083 0.453989 -21.728746 41 13 13
0.009979 0.766987 -36.709435 103 96 79
-10.582987 6.431505 -307.823914 104 97 82
-2.695208 1.324945 -63.414368 12 9 1
-2.734537 1.310880 -62.741180 21 18 14
-2.768507 1.310880 -62.741180 15 12 8
-2.802477 1.310880 -62.741180 17 14 10
-1.692282 0.474942 -22.731611 74 58 51
-1.829865 0.509847 -24.402225 54 36 25
-1.837010 0.508168 -24.321890 45 26 11
-1.851702 0.508587 -24.341925 57 38 23
-1.932372 0.509006 -24.361992 53 42 38
-1.945562 0.509006 -24.361992 38 31 22
-28.916321 6.431505 -307.823914 60 53 38
-29.082987 6.431505 -307.823914 84 77 62
-29.249655 6.431505 -307.823914 103 98 83
-29.416321 6.431505 -307.823914 100 95 80
-29.582987 6.431505 -307.823914 101 98 83
-29.749655 6.431505 -307.823914 98 95 80
-29.916321 6.431505 -307.823914 101 96 81
-30.082987 6.431505 -307.823914 104 99 84
-3.499388 0.708868 -33.927780 108 100 87
-3.517757 0.708868 -33.927780 105 97 84
-2.935270 0.453989 -21.728746 104 97 78
-2.947034 0.453989 -21.728746 102 95 76
-2.958799 0.453989 -21.728746 105 98 81
-50.582989 6.431505 -307.823914 98 89 75
-51.082989 6.431505 -307.823914 106 96 79
-4.358799 0.453989 -21.728746 106 97 87
-4.370564 0.453989 -21.728746 103 93 83
-4.382329 0.453989 -21.728746 106 96 86
-4.394093 0.453989 -21.728746 105 96 83
-4.405858 0.453989 -21.728746 101 92 78
-4.417623 0.453989 -21.728746 102 93 79
-4.429388 0.453989 -21.728746 99 93 74
15.587010 2.823589 -138.737534 93 81 77
15.511893 2.823589 -138.737534 57 45 43
15.436775 2.823589 -138.737534 41 31 31
3.699178 0.741584 -36.437851 65 47 36
3.679449 0.741584 -36.437851 44 26 15
1.970613 0.442224 -21.728746 31 10 9
1.958848 0.442224 -21.728746 39 12 15
3.465213 1.748327 -85.904350 81 20 18
-10.582987 6.264838 -307.823914 106 99 84
-10.749654 6.264838 -307.823914 106 99 84
-10.916321 6.264838 -307.823914 101 94 79
-2.750985 1.268828 -62.344082 17 12 9
-2.784740 1.268828 -62.344082 23 18 15
-1.666385 0.462279 -22.714140 9 5 4
-1.692282 0.462634 -22.731611 76 60 48
-1.837010 0.495000 -24.321890 64 43 22
-1.851702 0.495407 -24.341925 65 41 21
-1.932372 0.495816 -24.361992 50 39 31
-1.945562 0.495816 -24.361992 48 39 29
-28.749655 6.264838 -307.823914 54 45 32
-28.916321 6.264838 -307.823914 73 66 51
-29.082987 6.264838 -307.823914 103 96 81
-29.249655 6.264838 -307.823914 101 96 81
-29.416321 6.264838 -307.823914 105 100 85
-29.582987 6.264838 -307.823914 104 100 82
-29.749655 6.264838 -307.823914 101 97 79
-29.916321 6.264838 -307.823914 106 99 82
-30.082987 6.264838 -307.823914 103 96 79
-3.517757 0.690499 -33.927780 105 97 84
-2.935270 0.442224 -21.728746 105 99 80
-2.947034 0.442224 -21.728746 108 102 83
-50.416321 6.264838 -307.823914 104 97 80
-50.582989 6.264838 -307.823914 101 94 77
-50.916321 6.264838 -307.823914 104 96 79
-51.082989 6.264838 -307.823914 102 94 77
-4.358799 0.442224 -21.728746 103 94 84
-4.370564 0.442224 -21.728746 105 96 86
-4.382329 0.442224 -21.728746 104 95 85
-4.394093 0.442224 -21.728746 103 94 81
-4.405858 0.442224 -21.728746 102 93 79
-4.417623 0.442224 -21.728746 103 94 80
40.083679 6.098171 -307.823914 32 22 22
3.699178 0.721855 -36.437851 57 42 33
3.679449 0.721855 -36.437851 47 30 21
3.659720 0.721855 -36.437851 46 27 19
1.958848 0.430459 -21.728746 34 12 14
3.465213 1.701815 -85.904350 78 17 15
-10.582987 6.098171 -307.823914 107 100 85
-10.749654 6.098171 -307.823914 105 98 83
-10.916321 6.098171 -307.823914 105 98 83
-2.750985 1.235073 -62.344082 12 5 2
-2.784740 1.235073 -62.344082 13 6 3
-1.654087 0.449980 -22.714140 9 5 4
-1.666385 0.449980 -22.714140 11 7 6
-1.678683 0.449980 -22.714140 29 21 14
-1.692282 0.450327 -22.731611 71 54 41
-28.749655 6.098171 -307.823914 82 73 60
-28.916321 6.098171 -307.823914 102 95 80
-29.082987 6.098171 -307.823914 100 93 78
-29.249655 6.098171 -307.823914 105 98 83
-29.416321 6.098171 -307.823914 108 103 88
-29.582987 6.098171 -307.823914 101 97 79
-29.749655 6.098171 -307.823914 101 97 79
-29.916321 6.098171 -307.823914 104 97 80
-2.923505 0.430459 -21.728746 106 98 81
-2.935270 0.430459 -21.728746 106 99 82
-50.416321 6.098171 -307.823914 103 96 79
-50.582989 6.098171 -307.823914 102 95 78
-4.370564 0.430459 -21.728746 100 91 81
-4.382329 0.430459 -21.728746 100 91 81
-4.394093 0.430459 -21.728746 102 93 80
-4.405858 0.430459 -21.728746 103 94 80
-4.417623 0.430459 -21.728746 102 94 77
40.250347 5.931505 -307.823914 29 22 19
40.083679 5.931505 -307.823914 56 47 44
39.917011 5.931505 -307.823914 100 88 84
39.750347 5.931505 -307.823914 114 100 94
3.723498 0.702993 -36.482834 40 31 22
3.703745 0.702993 -36.482834 44 32 26
3.683992 0.702993 -36.482834 41 25 19
3.465213 1.655304 -85.904350 77 17 17
-10.582987 5.931505 -307.823914 108 100 83
-10.749654 5.931505 -307.823914 105 97 80
-10.916321 5.931505 -307.823914 108 100 83
-10.037422 5.371929 -278.783936 108 100 83
-8.852187 4.667413 -242.222092 106 99 82
-7.267757 3.721728 -193.144409 105 101 83
-1.629490 0.437682 -22.714140 29 23 18
-1.641788 0.437682 -22.714140 30 23 20
-1.654087 0.437682 -22.714140 18 13 10
-1.666385 0.437682 -22.714140 11 6 3
-1.678683 0.437682 -22.714140 18 10 3
-1.692282 0.438019 -22.731611 60 44 31
-28.416321 5.931505 -307.823914 52 43 29
-28.582987 5.931505 -307.823914 74 65 52
-28.749655 5.931505 -307.823914 103 94 81
-28.916321 5.931505 -307.823914 112 103 90
-29.082987 5.931505 -307.823914 107 99 86
-29.249655 5.931505 -307.823914 107 100 85
-29.416321 5.931505 -307.823914 107 100 85
-29.582987 5.931505 -307.823914 106 99 82
-29.749655 5.931505 -307.823914 107 100 83
-2.930400 0.477305 -24.770407 104 100 82
-50.416321 5.931505 -307.823914 102 97 82
-50.582989 5.931505 -307.823914 105 98 83
-10.172021 1.088766 -56.503052 104 97 82
-10.202614 1.088766 -56.503052 104 97 82
-4.370564 0.418694 -21.728746 102 93 83
-4.382329 0.418694 -21.728746 100 91 81
-4.394093 0.418694 -21.728746 102 93 80
-4.405858 0.418694 -21.728746 104 95 81
-4.417623 0.418694 -21.728746 104 96 79
4.454281 0.610170 -32.581142 26 9 12
4.393049 0.604175 -32.261021 19 5 6
4.351828 0.600895 -32.085880 29 16 14
4.339167 0.601548 -32.120758 57 45 41
40.417011 5.764838 -307.823914 41 31 31
40.250347 5.764838 -307.823914 71 62 59
40.083679 5.764838 -307.823914 102 92 85
39.917011 5.764838 -307.823914 112 101 93
39.750347 5.764838 -307.823914 117 105 95
39.417011 5.764838 -307.823914 118 101 92
39.250347 5.764838 -307.823914 121 104 95
2.020493 1.411797 -75.385445 67 17 11
1.902042 1.356432 -72.429153 70 19 16
1.792531 1.305246 -69.695984 67 19 15
-10.416320 5.764838 -307.823914 107 100 85
-10.582987 5.764838 -307.823914 106 98 81
-10.749654 5.764838 -307.823914 105 97 80
-10.916321 5.764838 -307.823914 104 96 79
-10.037422 5.220985 -278.783936 105 97 80
-8.852187 4.536266 -242.222092 105 98 81
-7.884653 3.981471 -212.597809 106 99 82
-7.267757 3.617153 -193.144409 104 100 82
-1.666385 0.425384 -22.714140 11 4 1
-1.678683 0.425384 -22.714140 14 6 0
-28.249655 5.764838 -307.823914 51 42 28
-28.416321 5.764838 -307.823914 66 57 43
-28.582987 5.764838 -307.823914 103 94 81
-28.749655 5.764838 -307.823914 107 98 85
-28.916321 5.764838 -307.823914 99 90 77
-29.082987 5.764838 -307.823914 106 97 84
-29.249655 5.764838 -307.823914 104 97 82
-29.416321 5.764838 -307.823914 110 103 88
-29.582987 5.764838 -307.823914 109 102 85
-2.916988 0.463893 -24.770407 101 97 79
-2.930400 0.463893 -24.770407 103 99 81
-2.864681 0.406930 -21.728746 107 99 86
-2.876446 0.406930 -21.728746 107 99 86
-2.888211 0.406930 -21.728746 105 96 83
-2.899976 0.406930 -21.728746 104 95 81
-50.416321 5.764838 -307.823914 103 98 83
-10.172021 1.058173 -56.503052 105 98 83
-10.222158 1.060200 -56.611294 102 95 80
-10.252810 1.060200 -56.611294 102 95 80
-4.370564 0.406930 -21.728746 103 94 84
-4.382329 0.406930 -21.728746 99 91 78
-4.394093 0.406930 -21.728746 99 90 76
-4.405858 0.406930 -21.728746 102 93 79
-4.417623 0.406930 -21.728746 104 96 79
4.454281 0.592530 -32.581142 22 8 9
4.393049 0.586708 -32.261021 19 7 5
4.351828 0.583523 -32.085880 40 29 25
4.339167 0.584157 -32.120758 66 56 49
4.321775 0.584157 -32.120758 70 60 53
40.250347 5.598171 -307.823914 104 92 88
40.083679 5.598171 -307.823914 116 105 97
39.917011 5.598171 -307.823914 112 100 90
39.750347 5.598171 -307.823914 115 103 91
39.583679 5.598171 -307.823914 117 105 93
39.417011 5.598171 -307.823914 118 103 94
39.250347 5.598171 -307.823914 117 102 93
13.507820 2.067017 -113.658058 43 37 26
13.446281 2.067017 -113.658058 46 37 27
2.020493 1.370981 -75.385445 71 19 12
1.902042 1.317217 -72.429153 69 17 11
1.792531 1.267510 -69.695984 66 16 10
0.790558 0.708069 -38.934250 53 24 17
0.724532 0.685490 -37.692722 88 59 52
0.587451 0.626369 -34.441837 46 18 11
-10.249654 5.598171 -307.823914 104 96 79
-10.416320 5.598171 -307.823914 108 100 83
-10.582987 5.598171 -307.823914 106 98 81
-10.749654 5.598171 -307.823914 106 98 81
-10.916321 5.598171 -307.823914 106 98 81
-10.037422 5.070042 -278.783936 104 96 79
-8.852187 4.405118 -242.222092 103 96 79
-7.884653 3.866363 -212.597809 105 98 81
-7.267757 3.512578 -193.144409 105 101 83
-1.423398 0.403472 -22.185507 24 12 12
-28.249655 5.598171 -307.823914 60 51 37
-28.416321 5.598171 -307.823914 93 86 71
-28.582987 5.598171 -307.823914 107 99 86
-28.749655 5.598171 -307.823914 101 93 80
-28.916321 5.598171 -307.823914 102 93 80
-29.082987 5.598171 -307.823914 103 94 81
-29.249655 5.598171 -307.823914 105 96 82
-29.416321 5.598171 -307.823914 110 101 87
-2.903577 0.450482 -24.770407 104 98 79
-2.916988 0.450482 -24.770407 103 99 80
-2.930400 0.450482 -24.770407 105 101 83
-2.852917 0.395165 -21.728746 101 96 81
-2.864681 0.395165 -21.728746 102 97 82
-2.876446 0.395165 -21.728746 103 98 83
-2.888211 0.395165 -21.728746 105 98 83
-50.416321 5.598171 -307.823914 107 99 86
-10.172021 1.027580 -56.503052 103 95 82
-10.222158 1.029549 -56.611294 102 95 80
-4.382329 0.395165 -21.728746 96 90 77
-4.394093 0.395165 -21.728746 98 91 76
-4.405858 0.395165 -21.728746 102 95 80
4.454281 0.574889 -32.581142 18 6 4
4.393049 0.569241 -32.261021 25 14 10
4.351828 0.566150 -32.085880 50 40 33
4.334455 0.566150 -32.085880 68 59 50
4.317083 0.566150 -32.085880 77 68 59
39.917011 5.431505 -307.823914 114 101 93
39.750347 5.431505 -307.823914 110 98 88
39.583679 5.431505 -307.823914 111 99 87
39.417011 5.431505 -307.823914 109 97 87
39.250347 5.431505 -307.823914 109 96 88
39.083679 5.431505 -307.823914 107 91 84
13.507820 2.005479 -113.658058 45 39 28
2.282641 1.444389 -81.858994 72 18 11
2.020493 1.330164 -75.385445 71 19 12
1.902042 1.278001 -72.429153 68 16 10
1.792531 1.229775 -69.695984 67 17 11
0.790558 0.686989 -38.934250 62 40 29
0.724532 0.665082 -37.692722 108 86 75
0.697012 0.658364 -37.311989 77 54 46
0.587451 0.607721 -34.441837 70 50 39
0.559671 0.597964 -33.888870 70 51 43
-10.249654 5.431505 -307.823914 107 99 82
-10.416320 5.431505 -307.823914 105 97 80
-10.582987 5.431505 -307.823914 108 100 83
-10.749654 5.431505 -307.823914 106 98 81
-10.916321 5.431505 -307.823914 108 100 83
-10.037422 4.919098 -278.783936 106 98 81
-8.852187 4.273971 -242.222092 105 98 81
-7.884653 3.751255 -212.597809 106 99 82
-1.415638 0.392639 -22.252331 35 21 23
-1.423398 0.391460 -22.185507 39 25 27
-28.249655 5.431505 -307.823914 89 82 67
-28.416321 5.431505 -307.823914 106 99 82
-28.582987 5.431505 -307.823914 100 92 79
-28.749655 5.431505 -307.823914 100 92 79
-28.916321 5.431505 -307.823914 108 99 86
-29.082987 5.431505 -307.823914 105 96 83
-29.249655 5.431505 -307.823914 107 98 84
-29.416321 5.431505 -307.823914 105 96 82
-2.852917 0.383400 -21.728746 101 96 81
-2.864681 0.383400 -21.728746 100 95 80
-8.921667 1.133531 -64.241516 103 94 84
-8.956450 1.133531 -64.241516 104 95 85
39.750347 5.264838 -307.823914 112 98 92
39.583679 5.264838 -307.823914 105 94 86
39.417011 5.264838 -307.823914 101 90 82
39.250347 5.264838 -307.823914 106 95 87
39.083679 5.264838 -307.823914 103 89 83
1.025846 0.434961 -25.431236 74 16 11
3.205792 1.792285 -104.791122 79 22 13
3.010282 1.713303 -100.173203 78 21 12
2.691461 1.559952 -91.207085 77 23 16
2.540158 1.499776 -87.688713 72 22 16
2.420845 1.456555 -85.161659 75 23 16
2.282641 1.400068 -81.858994 72 20 13
0.790558 0.665908 -38.934250 96 80 67
0.724532 0.644674 -37.692722 105 92 78
0.697012 0.638162 -37.311989 105 91 79
0.587451 0.589073 -34.441837 104 93 79
0.559671 0.579615 -33.888870 105 93 81
-10.082987 5.264838 -307.823914 104 97 80
-10.249654 5.264838 -307.823914 108 100 83
-10.416320 5.264838 -307.823914 104 96 79
-10.582987 5.264838 -307.823914 106 98 81
-10.749654 5.264838 -307.823914 106 98 81
-10.916321 5.264838 -307.823914 104 96 79
-10.037422 4.768155 -278.783936 104 96 79
-8.852187 4.142823 -242.222092 106 99 82
-7.884653 3.636147 -212.597809 106 99 82
-1.415638 0.380591 -22.252331 43 29 31
-1.423398 0.379448 -22.185507 43 29 31
-28.082987 5.264838 -307.823914 79 72 57
-28.249655 5.264838 -307.823914 103 98 83
-28.416321 5.264838 -307.823914 102 98 80
-28.582987 5.264838 -307.823914 104 98 85
-28.749655 5.264838 -307.823914 105 99 86
-28.916321 5.264838 -307.823914 102 94 81
-2.989202 0.418744 -24.483095 106 97 83
-3.002458 0.418744 -24.483095 105 97 80
-2.829387 0.371636 -21.728746 98 97 77
-2.841152 0.371636 -21.728746 104 100 81
-2.852917 0.371636 -21.728746 102 98 80
-8.921667 1.098749 -64.241516 105 96 86
-4.519105 0.379163 -22.168863 101 95 76
-4.531108 0.379163 -22.168863 106 101 80
39.750347 5.098171 -307.823914 113 98 96
21.254635 2.896003 -174.858551 41 30 32
21.159960 2.896003 -174.858551 61 52 49
36.250347 5.098171 -307.823914 43 37 38
9.271324 1.340889 -80.961906 53 36 27
30.750345 5.098171 -307.823914 34 13 15
30.583679 5.098171 -307.823914 36 14 16
30.417013 5.098171 -307.823914 36 14 16
30.250345 5.098171 -307.823914 34 12 14
27.769550 4.706004 -284.145142 33 12 11
1.025846 0.421191 -25.431236 77 19 14
1.002586 0.417242 -25.192749 77 19 14
0.711789 0.359871 -21.728746 74 19 12
3.205792 1.735548 -104.791122 77 22 15
3.010282 1.659066 -100.173203 76 21 14
2.691461 1.510569 -91.207085 72 20 14
2.540158 1.452298 -87.688713 67 15 9
2.420845 1.410445 -85.161659 73 21 14
2.282641 1.355746 -81.858994 75 23 16
0.697012 0.617960 -37.311989 108 99 85
0.559671 0.561267 -33.888870 102 95 80
-10.082987 5.098171 -307.823914 108 101 86
-10.249654 5.098171 -307.823914 105 96 82
-10.416320 5.098171 -307.823914 105 96 82
-10.582987 5.098171 -307.823914 102 93 79
-10.749654 5.098171 -307.823914 105 97 80
-10.916321 5.098171 -307.823914 107 99 82
-1.475334 0.560624 -33.850052 38 22 16
-1.493662 0.560624 -33.850052 45 29 23
-1.511989 0.560624 -33.850052 35 19 13
-1.415638 0.368542 -22.252331 29 15 17
-1.423398 0.367436 -22.185507 37 23 25
-27.916321 5.098171 -307.823914 63 54 40
-28.082987 5.098171 -307.823914 95 88 73
-28.249655 5.098171 -307.823914 98 94 76
-28.416321 5.098171 -307.823914 102 98 80
-28.749655 5.098171 -307.823914 107 100 85
-28.916321 5.098171 -307.823914 106 99 84
-3.002458 0.405488 -24.483095 103 96 79
-2.829387 0.359871 -21.728746 100 99 79
-2.841152 0.359871 -21.728746 99 95 76
-2.852917 0.359871 -21.728746 100 96 77
-4.531108 0.367160 -22.168863 101 95 76
21.159960 2.801328 -174.858551 52 44 37
36.250347 4.931505 -307.823914 40 35 37
36.083679 4.931505 -307.823914 58 53 55
35.917011 4.931505 -307.823914 77 70 67
9.271324 1.297053 -80.961906 43 32 24
31.083679 4.931505 -307.823914 42 24 25
30.917013 4.931505 -307.823914 34 16 17
30.750345 4.931505 -307.823914 29 11 12
30.583679 4.931505 -307.823914 30 9 11
30.417013 4.931505 -307.823914 32 11 13
30.250345 4.931505 -307.823914 35 15 14
27.769550 4.552158 -284.145142 33 14 11
1.025846 0.407422 -25.431236 76 19 17
1.002586 0.403601 -25.192749 71 15 10
0.711789 0.348106 -21.728746 74 19 12
0.700024 0.348106 -21.728746 70 20 14
3.205792 1.678810 -104.791122 72 21 19
3.010282 1.604829 -100.173203 73 20 17
2.691461 1.461187 -91.207085 72 20 14
2.540158 1.404820 -87.688713 70 15 10
2.420845 1.364336 -85.161659 72 17 10
2.282641 1.311425 -81.858994 73 18 11
2.143324 1.255768 -78.384872 76 21 14
-10.416320 4.931505 -307.823914 109 101 88
-10.582987 4.931505 -307.823914 106 98 85
-10.749654 4.931505 -307.823914 100 93 78
-1.462031 0.544166 -33.966778 38 20 13
-1.480422 0.544166 -33.966778 38 21 12
-1.498812 0.544166 -33.966778 35 20 11
-27.916321 4.931505 -307.823914 90 83 64
-28.082987 4.931505 -307.823914 106 99 82
-28.416321 4.931505 -307.823914 103 99 80
-28.582987 4.931505 -307.823914 105 98 81
-28.749655 4.931505 -307.823914 108 100 83
-7.922819 0.652100 -40.703987 106 97 77
36.250347 4.764838 -307.823914 50 44 49
36.083679 4.764838 -307.823914 64 57 60
35.917011 4.764838 -307.823914 82 75 72
9.271324 1.253218 -80.961906 35 25 18
31.250345 4.764838 -307.823914 49 32 29
31.083679 4.764838 -307.823914 44 26 27
30.917013 4.764838 -307.823914 32 14 15
30.750345 4.764838 -307.823914 27 9 10
30.583679 4.764838 -307.823914 27 9 10
30.417013 4.764838 -307.823914 29 11 12
30.250345 4.764838 -307.823914 31 13 12
27.769550 4.398312 -284.145142 34 17 14
1.025846 0.393653 -25.431236 75 18 16
1.002586 0.389961 -25.192749 76 20 15
0.711789 0.336342 -21.728746 74 19 12
2.691461 1.411804 -91.207085 64 16 12
2.540158 1.357343 -87.688713 72 22 16
2.420845 1.318226 -85.161659 82 30 24
2.282641 1.267104 -81.858994 72 18 11
2.143324 1.213327 -78.384872 71 19 12
-1.462031 0.525775 -33.966778 36 19 10
-1.480422 0.525775 -33.966778 30 14 2
-28.416321 4.764838 -307.823914 106 100 81
-28.582987 4.764838 -307.823914 104 97 78
-28.749655 4.764838 -307.823914 107 99 82
-5.001048 0.495584 -32.016354 105 98 83
-7.878407 0.631802 -40.816429 101 94 74
-7.900506 0.631802 -40.816429 103 94 74
-7.922606 0.631802 -40.816429 105 96 76
-7.922819 0.630061 -40.703987 104 95 75
-4.429727 0.343670 -22.202175 100 96 78
-4.441748 0.343670 -22.202175 98 94 76
-4.453769 0.343670 -22.202175 106 102 84
5.098075 0.480855 -32.190735 12 4 4
7.693035 0.941203 -63.008732 40 28 28
7.658919 0.941203 -63.008732 52 41 37
36.250347 4.598171 -307.823914 60 53 58
36.083679 4.598171 -307.823914 71 62 65
31.250345 4.598171 -307.823914 52 35 32
31.083679 4.598171 -307.823914 35 17 18
30.917013 4.598171 -307.823914 26 10 11
30.750345 4.598171 -307.823914 30 14 15
30.583679 4.598171 -307.823914 31 16 14
30.417013 4.598171 -307.823914 27 11 12
30.250345 4.598171 -307.823914 27 12 10
27.769550 4.244466 -284.145142 30 15 12
1.002586 0.376321 -25.192749 75 21 14
2.691461 1.362421 -91.207085 58 20 15
2.540158 1.309865 -87.688713 59 20 12
2.420845 1.272117 -85.161659 69 25 18
2.282641 1.222782 -81.858994 81 37 30
2.143324 1.170887 -78.384872 64 18 11
-1.480422 0.507384 -33.966778 44 28 16
-28.249655 4.598171 -307.823914 99 92 73
-28.416321 4.598171 -307.823914 104 97 78
-28.582987 4.598171 -307.823914 101 93 76
-28.749655 4.598171 -307.823914 105 96 82
-5.001048 0.478250 -32.016354 105 98 83
-7.900506 0.609702 -40.816429 99 92 73
-7.922819 0.608023 -40.703987 100 90 72
5.098075 0.463425 -32.190735 14 7 4
7.693035 0.907088 -63.008732 62 49 51
9.257543 1.152912 -80.084267 67 54 46
9.214182 1.152912 -80.084267 44 32 26
9.170822 1.152912 -80.084267 83 73 66
31.250345 4.431505 -307.823914 41 26 23
31.083679 4.431505 -307.823914 36 21 19
30.917013 4.431505 -307.823914 24 11 9
30.750345 4.431505 -307.823914 23 10 8
30.583679 4.431505 -307.823914 25 12 10
30.417013 4.431505 -307.823914 27 13 14
30.250345 4.431505 -307.823914 27 14 12
2.439547 0.525215 -36.482834 75 20 15
1.420524 0.375817 -26.105207 74 20 13
2.691461 1.313038 -91.207085 75 47 40
2.540158 1.262387 -87.688713 67 38 31
2.420845 1.226007 -85.161659 65 34 25
2.282641 1.178461 -81.858994 108 75 66
2.143324 1.128447 -78.384872 80 47 38
-28.582987 4.431505 -307.823914 106 97 83
-28.749655 4.431505 -307.823914 105 96 83
-28.916321 4.431505 -307.823914 99 90 80
-2.989518 0.370579 -25.741373 103 96 79
-2.726682 0.330298 -22.943398 104 97 80
-5.001048 0.460915 -32.016354 102 95 80
5.098075 0.445996 -32.190735 14 10 5
31.083679 4.264838 -307.823914 27 12 9
30.250345 4.264838 -307.823914 21 9 7
2.946825 0.573424 -41.388088 78 21 12
2.439547 0.505462 -36.482834 71 18 15
2.419794 0.505462 -36.482834 70 19 17
1.434658 0.361682 -26.105207 73 18 13
1.420524 0.361682 -26.105207 74 19 14
-9.416320 4.264838 -307.823914 103 95 82
-28.582987 4.264838 -307.823914 93 81 69
-28.749655 4.264838 -307.823914 97 88 78
-28.916321 4.264838 -307.823914 99 92 83
-2.989518 0.356642 -25.741373 104 97 80
-2.718481 0.318370 -22.979078 102 99 78
-2.726682 0.317876 -22.943398 104 98 79
3.519076 0.598820 -44.978836 87 24 16
3.494723 0.598820 -44.978836 83 20 12
2.946825 0.551015 -41.388088 74 20 9
2.924416 0.551015 -41.388088 75 20 11
2.419794 0.485709 -36.482834 71 20 18
1.153690 0.310027 -23.286915 68 17 14
1.141082 0.310027 -23.286915 71 19 13
-0.906171 0.479201 -35.994026 101 94 77
-9.249654 4.098171 -307.823914 105 97 84
-9.416320 4.098171 -307.823914 104 96 83
-7.656985 1.873450 -140.719498 58 39 32
-7.733175 1.873450 -140.719498 36 17 9
-2.370564 0.289283 -21.728746 106 99 84
-2.989518 0.342704 -25.741373 108 101 84
-2.718481 0.305929 -22.979078 102 99 78
-2.726682 0.305454 -22.943398 105 99 80
-8.799930 0.837073 -62.874672 104 97 78
31.750345 3.931504 -307.823914 114 94 93
31.583679 3.931504 -307.823914 118 101 98
31.417013 3.931504 -307.823914 121 106 103
8.869116 1.205829 -94.412445 44 33 25
8.817997 1.205829 -94.412445 45 32 24
8.766879 1.205829 -94.412445 36 23 15
8.715761 1.205829 -94.412445 31 15 8
3.494723 0.574466 -44.978836 81 19 11
2.419794 0.465956 -36.482834 76 23 20
1.153690 0.297419 -23.286915 63 15 13
-0.906171 0.459713 -35.994026 103 96 81
-9.416320 3.931504 -307.823914 106 99 84
-7.656985 1.797259 -140.719498 53 34 26
-2.370564 0.277518 -21.728746 103 96 81
-2.382329 0.277518 -21.728746 101 96 81
-2.718481 0.293487 -22.979078 102 98 79
-2.726682 0.293031 -22.943398 107 100 83
-8.799930 0.803031 -62.874672 104 99 78
-8.833972 0.803031 -62.874672 103 97 78
31.750345 3.764838 -307.823914 114 96 97
31.583679 3.764838 -307.823914 116 98 97
31.417013 3.764838 -307.823914 117 102 99
8.954946 1.165885 -95.326118 55 43 37
8.903333 1.165885 -95.326118 48 34 28
8.851720 1.165885 -95.326118 37 23 17
27.917013 3.764838 -307.823914 30 11 8
3.527323 0.547613 -44.774387 78 19 9
3.503081 0.547613 -44.774387 79 22 13
3.478838 0.547613 -44.774387 77 20 11
3.454596 0.547613 -44.774387 77 22 13
7.917013 3.764838 -307.823914 108 102 89
-0.892116 0.442922 -36.214577 104 97 82
-0.906171 0.440225 -35.994026 104 97 82
-9.416320 3.764838 -307.823914 101 96 81
-9.582987 3.764838 -307.823914 108 102 89
-10.582987 3.764838 -307.823914 106 99 82
-1.912823 0.384085 -31.403927 42 38 37
-2.370564 0.265753 -21.728746 103 96 81
-2.382329 0.265753 -21.728746 97 92 77
-2.726682 0.280609 -22.943398 105 98 81
9.942952 0.986927 -84.431702 74 65 55
31.917013 3.598171 -307.823914 100 82 83
31.750345 3.598171 -307.823914 106 88 89
31.583679 3.598171 -307.823914 109 91 92
9.161826 1.140015 -97.528366 84 72 68
9.109020 1.140015 -97.528366 61 49 45
9.056215 1.140015 -97.528366 42 30 26
27.917013 3.598171 -307.823914 30 12 11
27.750345 3.598171 -307.823914 32 11 13
27.583679 3.598171 -307.823914 37 17 16
4.569351 0.646862 -55.339130 85 22 14
4.539388 0.646862 -55.339130 80 21 12
3.511362 0.521002 -44.571789 79 16 8
1.311654 0.375054 -32.085880 77 22 17
1.273540 0.369043 -31.571684 75 20 15
8.083680 3.598171 -307.823914 99 92 77
7.917013 3.598171 -307.823914 105 98 83
-0.892116 0.423314 -36.214577 104 97 82
-0.906171 0.420736 -35.994026 100 93 78
-9.416320 3.598171 -307.823914 102 97 82
-9.582987 3.598171 -307.823914 106 100 87
-10.082987 3.598171 -307.823914 99 94 79
-10.249654 3.598171 -307.823914 106 99 84
-10.416320 3.598171 -307.823914 105 96 82
-10.582987 3.598171 -307.823914 105 98 83
-1.912823 0.367082 -31.403927 27 22 21
9.942952 0.941213 -84.431702 37 28 18
31.917013 3.431504 -307.823914 100 84 85
31.750345 3.431504 -307.823914 110 91 94
31.583679 3.431504 -307.823914 111 93 94
9.315548 1.105451 -99.164749 85 73 69
9.261856 1.105451 -99.164749 69 56 54
9.208165 1.105451 -99.164749 40 26 27
4.569351 0.616900 -55.339130 83 17 12
4.539388 0.616900 -55.339130 98 38 32
4.552048 0.622730 -55.862186 93 44 36
4.564949 0.628673 -56.395222 75 26 16
3.511362 0.496869 -44.571789 89 24 16
3.461824 0.503707 -45.185162 69 26 17
1.311654 0.357681 -32.085880 77 22 19
1.273540 0.351949 -31.571684 74 19 16
8.083680 3.431504 -307.823914 103 98 83
7.917013 3.431504 -307.823914 102 95 80
-0.892116 0.403706 -36.214577 104 97 82
-0.906171 0.401248 -35.994026 101 94 79
-9.416320 3.431504 -307.823914 104 99 84
-9.582987 3.431504 -307.823914 102 96 85
-10.082987 3.431504 -307.823914 113 105 92
-10.249654 3.431504 -307.823914 106 97 83
-10.416320 3.431504 -307.823914 103 94 80
-10.582987 3.431504 -307.823914 103 96 81
-10.749654 3.431504 -307.823914 98 92 79
-4.589637 1.055848 -94.715050 66 43 28
-2.754268 0.569938 -51.126465 42 29 21
-1.912823 0.350079 -31.403927 31 26 25
-1.611624 0.266525 -23.908653 29 20 16
-6.567919 0.364005 -32.653145 99 94 79
9.942952 0.895498 -84.431702 22 13 3
31.750345 3.264838 -307.823914 94 77 80
31.583679 3.264838 -307.823914 101 84 87
4.552048 0.592485 -55.862186 112 68 61
4.564949 0.598138 -56.395222 91 52 43
3.511362 0.472737 -44.571789 83 19 14
3.461824 0.479242 -45.185162 95 63 52
2.139570 0.331315 -31.237946 79 19 13
2.120415 0.330966 -31.204958 76 18 12
1.590164 0.386944 -36.482834 67 20 16
1.311654 0.340309 -32.085880 78 23 20
1.273540 0.334855 -31.571684 76 21 18
8.083680 3.264838 -307.823914 99 96 81
7.917013 3.264838 -307.823914 97 92 77
0.264730 0.230459 -21.728746 105 99 86
-0.892116 0.384099 -36.214577 107 100 85
-0.906171 0.381759 -35.994026 106 99 84
-10.416320 3.264838 -307.823914 98 89 76
-10.582987 3.264838 -307.823914 94 86 73
-10.749654 3.264838 -307.823914 58 52 41
-4.589637 1.004565 -94.715050 66 42 30
-2.754268 0.542257 -51.126465 36 24 18
-1.611624 0.253580 -23.908653 31 20 16
-6.567919 0.346325 -32.653145 102 95 78
-4.452917 0.230459 -21.728746 103 96 79
31.583679 3.098171 -307.823914 97 81 82
4.552048 0.562239 -55.862186 107 68 60
4.564949 0.567604 -56.395222 127 96 87
3.461824 0.454777 -45.185162 113 89 77
2.139570 0.314402 -31.237946 81 23 17
2.120415 0.314070 -31.204958 83 28 19
2.103520 0.314070 -31.204958 79 28 18
2.141006 0.327560 -32.545261 70 25 12
1.775226 0.288202 -28.634783 72 23 13
1.734136 0.286536 -28.469263 69 20 12
1.715417 0.285985 -28.414515 78 29 21
1.700032 0.285985 -28.414515 69 18 15
1.105369 0.227042 -22.558088 71 23 19
1.093155 0.227042 -22.558088 68 20 14
1.080941 0.227042 -22.558088 69 19 13
1.590164 0.367191 -36.482834 64 24 19
8.083680 3.098171 -307.823914 100 95 80
0.264730 0.218694 -21.728746 102 96 83
0.252966 0.218694 -21.728746 100 94 83
-10.582987 3.098171 -307.823914 60 50 40
-10.749654 3.098171 -307.823914 40 33 24
-4.589637 0.953283 -94.715050 59 34 24
-2.754268 0.514575 -51.126465 33 23 16
-1.611624 0.240635 -23.908653 29 18 14
-1.672700 0.245805 -24.422394 60 49 45
-1.685923 0.245805 -24.422394 70 61 57
-1.699146 0.245805 -24.422394 67 60 57
-8.666610 0.505824 -50.256966 104 96 83
-8.693821 0.505824 -50.256966 103 95 82
-6.567919 0.328646 -32.653145 101 94 77
-4.452917 0.218694 -21.728746 101 95 76
4.564949 0.537070 -56.395222 111 89 78
3.461824 0.430313 -45.185162 105 88 75
2.139570 0.297489 -31.237946 73 20 10
2.120415 0.297175 -31.204958 97 48 38
2.103520 0.297175 -31.204958 108 68 56
2.141006 0.309939 -32.545261 68 33 19
1.775226 0.272698 -28.634783 72 34 22
1.734136 0.271122 -28.469263 62 23 14
1.715417 0.270600 -28.414515 63 22 13
1.698399 0.270340 -28.387220 65 20 16
1.676587 0.269306 -28.278561 67 20 16
1.226397 0.223530 -23.471880 68 24 17
1.204124 0.221769 -23.286915 69 25 18
1.185908 0.220725 -23.177330 68 24 17
1.132390 0.215321 -22.609867 68 21 17
1.590164 0.347438 -36.482834 70 39 30
0.812249 0.252852 -26.550850 100 97 82
0.264730 0.206930 -21.728746 102 96 83
0.252966 0.206930 -21.728746 100 94 83
-10.249654 2.931504 -307.823914 44 31 17
-10.416320 2.931504 -307.823914 39 27 15
-10.582987 2.931504 -307.823914 41 31 21
-10.749654 2.931504 -307.823914 19 12 3
-1.695733 0.233936 -24.564503 52 43 40
-1.709033 0.233936 -24.564503 56 48 48
-1.722333 0.233936 -24.564503 51 43 43
-2.286902 0.301311 -31.639288 32 28 23
-2.304033 0.301311 -31.639288 39 35 30
-2.321164 0.301311 -31.639288 35 29 22
-8.612188 0.478613 -50.256966 104 99 84
-8.639400 0.478613 -50.256966 107 99 86
-8.693821 0.478613 -50.256966 105 97 84
-4.452917 0.206930 -21.728746 100 94 75
27.417013 2.764838 -307.823914 61 18 15
27.250345 2.764838 -307.823914 71 20 17
27.083679 2.764838 -307.823914 81 23 18
26.917013 2.764838 -307.823914 84 20 15
26.750345 2.764838 -307.823914 85 20 12
3.461824 0.405848 -45.185162 100 84 71
2.178001 0.281170 -31.304127 71 25 17
2.161052 0.281170 -31.304127 72 25 17
2.139570 0.280576 -31.237946 69 24 13
2.120415 0.280279 -31.204958 75 35 23
2.103520 0.280279 -31.204958 109 78 63
2.141006 0.292318 -32.545261 103 78 62
1.775226 0.257194 -28.634783 99 72 58
1.734136 0.255708 -28.469263 89 61 50
1.715417 0.255216 -28.414515 67 37 26
1.698399 0.254971 -28.387220 61 25 19
1.676587 0.253995 -28.278561 62 22 17
1.226397 0.210822 -23.471880 64 28 18
1.204124 0.209160 -23.286915 59 24 14
1.185908 0.208176 -23.177330 58 22 12
1.132390 0.203079 -22.609867 67 25 20
1.590164 0.327684 -36.482834 105 83 72
0.812249 0.238477 -26.550850 100 93 78
0.797874 0.238477 -26.550850 104 95 81
0.264730 0.195165 -21.728746 104 98 85
0.252966 0.195165 -21.728746 102 96 85
-1.525947 0.511415 -56.938526 107 100 85
-1.556776 0.511415 -56.938526 99 92 77
-10.249654 2.764838 -307.823914 43 30 16
-10.416320 2.764838 -307.823914 31 20 6
-10.582987 2.764838 -307.823914 29 20 7
-10.749654 2.764838 -307.823914 19 12 3
-2.744214 0.551818 -61.436790 52 32 27
-2.777478 0.551818 -61.436790 53 32 30
-2.810742 0.551818 -61.436790 46 27 22
-2.844006 0.551818 -61.436790 47 28 23
-3.372811 0.562340 -62.608253 26 17 14
-3.406709 0.562340 -62.608253 20 13 10
-3.440608 0.562340 -62.608253 15 10 7
-2.269772 0.284180 -31.639288 19 15 14
-8.639400 0.451402 -50.256966 104 96 83
-8.693821 0.451402 -50.256966 104 97 82
27.417013 2.598171 -307.823914 67 18 16
27.250345 2.598171 -307.823914 75 20 17
27.083679 2.598171 -307.823914 83 19 15
26.917013 2.598171 -307.823914 86 18 13
2.194950 0.264221 -31.304127 103 81 69
2.178001 0.264221 -31.304127 91 59 48
2.161052 0.264221 -31.304127 72 37 24
2.139570 0.263662 -31.237946 73 38 25
2.120415 0.263384 -31.204958 58 26 13
1.715417 0.239831 -28.414515 102 80 68
1.698399 0.239601 -28.387220 71 43 36
1.676587 0.238684 -28.278561 67 35 29
1.226397 0.198113 -23.471880 77 50 36
1.204124 0.196552 -23.286915 59 32 18
1.185908 0.195627 -23.177330 60 30 19
1.132390 0.190837 -22.609867 79 42 34
1.590164 0.307931 -36.482834 109 91 80
-1.525947 0.480587 -56.938526 104 97 82
-1.575462 0.476911 -56.503052 106 100 87
-10.249654 2.598171 -307.823914 37 22 6
-10.416320 2.598171 -307.823914 39 26 12
-10.582987 2.598171 -307.823914 17 8 0
-10.749654 2.598171 -307.823914 17 10 1
-2.784740 0.526212 -62.344082 42 23 18
-2.818495 0.526212 -62.344082 50 31 28
-2.852251 0.526212 -62.344082 50 31 26
-2.269772 0.267050 -31.639288 14 9 8
-2.286902 0.267050 -31.639288 19 12 9
-1.747034 0.183400 -21.728746 38 25 11
2.558848 0.171636 -21.728746 59 48 50
2.547083 0.171636 -21.728746 24 12 10
27.583679 2.431504 -307.823914 68 23 20
27.417013 2.431504 -307.823914 76 25 22
27.250345 2.431504 -307.823914 80 24 19
27.083679 2.431504 -307.823914 85 21 16
26.917013 2.431504 -307.823914 87 19 14
2.194950 0.247272 -31.304127 102 89 75
2.178001 0.247272 -31.304127 107 85 73
2.161052 0.247272 -31.304127 108 82 70
2.144103 0.247272 -31.304127 91 65 53
2.131670 0.247797 -31.370590 87 65 53
2.114685 0.247797 -31.370590 99 86 72
1.035527 0.172651 -21.857319 68 24 17
1.399352 0.412411 -52.210415 50 41 31
2.000124 0.870987 -110.265282 103 94 81
-1.575462 0.446318 -56.503052 105 97 84
-10.582987 2.431504 -307.823914 21 12 2
-10.749654 2.431504 -307.823914 14 7 0
-10.916321 2.431504 -307.823914 11 8 0
-2.808440 0.496648 -62.874672 41 22 17
-2.842483 0.496648 -62.874672 54 35 30
-2.876525 0.496648 -62.874672 50 31 26
-2.910568 0.496648 -62.874672 38 22 15
-1.735270 0.171636 -21.728746 43 26 17
-1.747034 0.171636 -21.728746 49 33 21
2.570613 0.159871 -21.728746 77 67 79
2.558848 0.159871 -21.728746 66 57 67
2.547083 0.159871 -21.728746 25 18 23
27.417013 2.264838 -307.823914 72 24 20
27.250345 2.264838 -307.823914 79 27 21
27.083679 2.264838 -307.823914 83 23 17
26.917013 2.264838 -307.823914 86 20 15
2.171102 0.229593 -31.204958 103 89 77
2.154206 0.229593 -31.204958 104 90 78
2.137311 0.229593 -31.204958 100 86 74
2.131670 0.230812 -31.370590 99 87 75
1.717589 0.207466 -28.197611 105 95 78
1.702322 0.207466 -28.197611 102 92 75
1.687055 0.207466 -28.197611 102 91 77
1.035527 0.160817 -21.857319 68 29 21
1.017671 0.159871 -21.728746 66 25 16
1.399352 0.384142 -52.210415 45 36 27
2.394065 0.823577 -111.935966 73 64 54
2.324654 0.820470 -111.513565 96 89 74
2.264277 0.820470 -111.513565 95 88 71
2.059826 0.811285 -110.265282 103 96 81
2.000124 0.811285 -110.265282 103 96 81
-1.575462 0.415725 -56.503052 109 100 87
-10.582987 2.264838 -307.823914 17 9 2
-10.749654 2.264838 -307.823914 12 6 0
-10.916321 2.264838 -307.823914 21 15 10
-1.735270 0.159871 -21.728746 45 25 20
-1.747034 0.159871 -21.728746 50 28 22
-1.758799 0.159871 -21.728746 61 36 32
-12.436033 0.677335 -92.059486 108 100 87
3.557767 0.164967 -24.202372 21 15 10
3.538866 0.164697 -24.162792 16 11 8
2.570613 0.148106 -21.728746 47 37 50
2.558848 0.148106 -21.728746 45 37 48
2.547083 0.148106 -21.728746 20 15 24
27.417013 2.098171 -307.823914 68 21 17
27.250345 2.098171 -307.823914 69 21 15
27.083679 2.098171 -307.823914 74 18 13
26.917013 2.098171 -307.823914 83 21 15
1.164660 0.153525 -22.523701 102 98 80
1.152464 0.153525 -22.523701 99 94 79
1.047362 0.148983 -21.857319 92 63 54
1.035527 0.148983 -21.857319 91 60 51
1.017671 0.148106 -21.728746 91 56 46
1.858798 0.374395 -54.927689 98 96 78
1.399352 0.355874 -52.210415 40 33 24
2.454671 0.762971 -111.935966 50 40 33
2.394065 0.762971 -111.935966 65 58 49
2.324654 0.760092 -111.513565 60 54 41
2.264277 0.760092 -111.513565 60 56 38
2.203899 0.760092 -111.513565 82 75 60
2.143522 0.760092 -111.513565 101 94 79
1.910060 0.907317 -133.113037 100 97 83
-10.582987 2.098171 -307.823914 11 5 0
-10.749654 2.098171 -307.823914 17 11 6
-2.131190 0.264337 -38.780964 30 27 22
-2.152187 0.264337 -38.780964 42 40 32
-2.173185 0.264337 -38.780964 29 27 19
-2.194182 0.264337 -38.780964 17 15 7
-2.290278 0.270732 -39.719215 11 10 6
-2.263114 0.265032 -38.883022 13 10 6
-2.290112 0.260912 -38.278622 15 10 7
-1.747034 0.148106 -21.728746 57 36 34
-12.582173 0.637419 -93.516129 107 100 85
-12.436033 0.627490 -92.059486 103 97 84
3.751192 0.144187 -22.979078 80 77 56
4.327028 0.176259 -28.090395 47 41 34
4.275243 0.174764 -27.852118 33 27 22
3.557767 0.151863 -24.202372 17 10 7
3.538866 0.151614 -24.162792 17 12 11
2.570613 0.136341 -21.728746 25 15 27
2.558848 0.136341 -21.728746 32 24 35
