ply
format ascii 1.0
element vertex 1259
property float x
property float y
property float z
property uchar red
property uchar green
property uchar blue
end_header
0.138277 0.788354 -12.017272 95 40 35
0.131793 0.788037 -12.012444 81 17 16
0.125365 0.788037 -12.012444 75 11 11
0.118889 0.787721 -12.007620 68 8 9
0.112463 0.787721 -12.007620 54 2 2
0.106037 0.787721 -12.007620 53 6 8
0.099612 0.787721 -12.007620 46 6 7
0.093186 0.787721 -12.007620 45 5 6
0.086725 0.787404 -12.002799 48 10 10
0.080302 0.787404 -12.002799 43 12 9
0.073909 0.787721 -12.007620 37 17 12
0.067483 0.787721 -12.007620 27 19 12
0.061033 0.787404 -12.002799 25 23 15
0.054588 0.787089 -11.997983 18 20 14
0.048187 0.787404 -12.002799 20 21 17
0.394402 0.779729 -11.983556 18 22 16
0.387989 0.779729 -11.983556 19 21 15
0.381576 0.779729 -11.983556 20 22 16
0.375314 0.780042 -11.988361 19 22 13
0.369047 0.780355 -11.993170 19 22 13
0.362629 0.780355 -11.993170 22 23 14
0.356211 0.780355 -11.993170 19 22 13
0.349933 0.780668 -11.997983 17 19 13
0.343650 0.780981 -12.002799 16 20 14
0.337227 0.780981 -12.002799 19 23 17
0.330804 0.780981 -12.002799 19 23 17
0.324511 0.781295 -12.007620 17 21 15
0.318086 0.781295 -12.007620 16 20 14
0.311660 0.781295 -12.007620 19 24 15
0.305234 0.781295 -12.007620 19 24 15
0.298809 0.781295 -12.007620 24 26 20
0.292383 0.781295 -12.007620 23 25 19
0.285957 0.781295 -12.007620 23 22 18
0.279531 0.781295 -12.007620 18 15 11
0.272996 0.780981 -12.002799 12 8 7
0.266573 0.780981 -12.002799 19 15 14
0.260150 0.780981 -12.002799 60 52 52
0.253727 0.780981 -12.002799 74 69 68
0.247304 0.780981 -12.002799 40 36 35
0.240880 0.780981 -12.002799 21 19 18
0.234551 0.781295 -12.007620 18 18 18
0.228126 0.781295 -12.007620 19 19 19
0.221700 0.781295 -12.007620 19 16 18
0.215274 0.781295 -12.007620 19 16 18
0.208933 0.781609 -12.012444 16 15 17
0.202504 0.781609 -12.012444 20 19 21
0.196076 0.781609 -12.012444 15 17 17
0.189648 0.781609 -12.012444 21 22 20
0.183219 0.781609 -12.012444 19 16 12
0.176862 0.781923 -12.017272 33 27 22
0.170431 0.781923 -12.017272 94 83 75
0.164000 0.781923 -12.017272 195 176 168
0.157570 0.781923 -12.017272 176 147 138
0.151078 0.781609 -12.012444 149 110 101
0.144650 0.781609 -12.012444 119 67 61
0.138221 0.781609 -12.012444 87 24 20
0.131740 0.781295 -12.007620 87 13 13
0.125315 0.781295 -12.007620 85 11 11
0.118889 0.781295 -12.007620 70 4 5
0.112418 0.780981 -12.002799 63 9 8
0.105995 0.780981 -12.002799 46 7 5
0.099572 0.780981 -12.002799 38 9 5
0.093149 0.780981 -12.002799 32 7 5
0.086691 0.780668 -11.997983 31 10 8
0.080270 0.780668 -11.997983 31 12 9
0.073879 0.780981 -12.002799 31 19 13
0.067456 0.780981 -12.002799 24 21 13
0.061009 0.780668 -11.997983 21 24 15
0.054544 0.780042 -11.988361 20 22 16
0.394402 0.773316 -11.983556 18 22 16
0.387989 0.773316 -11.983556 19 21 15
0.381576 0.773316 -11.983556 18 20 14
0.375314 0.773627 -11.988361 19 22 13
0.369047 0.773937 -11.993170 20 23 14
0.362629 0.773937 -11.993170 22 23 14
0.356211 0.773937 -11.993170 23 24 15
0.349933 0.774247 -11.997983 20 22 16
0.343513 0.774247 -11.997983 19 21 15
0.337227 0.774558 -12.002799 17 21 15
0.330804 0.774558 -12.002799 17 21 15
0.324511 0.774869 -12.007620 17 21 15
0.318086 0.774869 -12.007620 20 24 18
0.311660 0.774869 -12.007620 20 25 16
0.305112 0.774558 -12.002799 16 21 12
0.298689 0.774558 -12.002799 19 21 15
0.292265 0.774558 -12.002799 20 20 14
0.285842 0.774558 -12.002799 23 20 16
0.279419 0.774558 -12.002799 21 18 14
0.272996 0.774558 -12.002799 21 17 16
0.266573 0.774558 -12.002799 33 28 27
0.260150 0.774558 -12.002799 84 76 76
0.253727 0.774558 -12.002799 65 60 59
0.247304 0.774558 -12.002799 28 24 23
0.240880 0.774558 -12.002799 25 23 22
0.234457 0.774558 -12.002799 23 23 23
0.228034 0.774558 -12.002799 19 19 19
0.221700 0.774869 -12.007620 15 12 14
0.215274 0.774869 -12.007620 16 15 17
0.208849 0.774869 -12.007620 16 15 17
0.202423 0.774869 -12.007620 20 20 20
0.196076 0.775181 -12.012444 16 18 18
0.189648 0.775181 -12.012444 16 17 15
0.183219 0.775181 -12.012444 26 22 17
0.176791 0.775181 -12.012444 64 56 49
0.170363 0.775181 -12.012444 169 154 145
0.163935 0.775181 -12.012444 197 175 164
0.157506 0.775181 -12.012444 148 117 108
0.151078 0.775181 -12.012444 122 78 71
0.144650 0.775181 -12.012444 99 43 38
0.138166 0.774869 -12.007620 87 18 15
0.131740 0.774869 -12.007620 95 12 14
0.125264 0.774558 -12.002799 87 4 6
0.118841 0.774558 -12.002799 85 9 10
0.112373 0.774247 -11.997983 70 8 8
0.105952 0.774247 -11.997983 49 8 5
0.099532 0.774247 -11.997983 37 10 6
0.093111 0.774247 -11.997983 28 9 4
0.086656 0.773937 -11.993170 25 13 9
0.080270 0.774247 -11.997983 27 15 11
0.073879 0.774558 -12.002799 28 22 17
0.067429 0.774247 -11.997983 23 23 17
0.060960 0.773627 -11.988361 19 23 17
0.394244 0.766596 -11.978755 19 23 17
0.387834 0.766596 -11.978755 22 24 18
0.381576 0.766904 -11.983556 23 25 19
0.375164 0.766904 -11.983556 24 25 16
0.368899 0.767211 -11.988361 22 23 14
0.362483 0.767211 -11.988361 25 26 17
0.356068 0.767211 -11.988361 21 22 13
0.349793 0.767519 -11.993170 17 19 13
0.343513 0.767827 -11.997983 20 22 16
0.337092 0.767827 -11.997983 19 23 17
0.330804 0.768135 -12.002799 21 25 19
0.324381 0.768135 -12.002799 22 26 20
0.317958 0.768135 -12.002799 21 25 19
0.311535 0.768135 -12.002799 23 25 19
0.305112 0.768135 -12.002799 20 22 16
0.298689 0.768135 -12.002799 21 21 15
0.292265 0.768135 -12.002799 18 18 12
0.285842 0.768135 -12.002799 24 21 17
0.279419 0.768135 -12.002799 25 22 18
0.272887 0.767827 -11.997983 26 21 20
0.266466 0.767827 -11.997983 68 63 62
0.260045 0.767827 -11.997983 90 82 82
0.253625 0.767827 -11.997983 43 38 37
0.247204 0.767827 -11.997983 26 22 21
0.240784 0.767827 -11.997983 21 19 18
0.234457 0.768135 -12.002799 23 24 22
0.228034 0.768135 -12.002799 17 18 16
0.221611 0.768135 -12.002799 20 20 20
0.215188 0.768135 -12.002799 20 20 20
0.208849 0.768444 -12.007620 18 18 18
0.202423 0.768444 -12.007620 14 16 16
0.195997 0.768444 -12.007620 17 18 16
0.189572 0.768444 -12.007620 19 18 14
0.183219 0.768752 -12.012444 46 40 33
0.176791 0.768752 -12.012444 138 127 119
0.170363 0.768752 -12.012444 204 186 175
0.163935 0.768752 -12.012444 156 129 119
0.157506 0.768752 -12.012444 130 94 86
0.151017 0.768444 -12.007620 90 44 37
0.144592 0.768444 -12.007620 83 25 20
0.138110 0.768135 -12.002799 90 19 16
0.131687 0.768135 -12.002799 97 11 11
0.125214 0.767827 -11.997983 99 9 9
0.118793 0.767827 -11.997983 94 11 10
0.112328 0.767519 -11.993170 83 11 11
0.105910 0.767519 -11.993170 62 11 8
0.099492 0.767519 -11.993170 46 14 9
0.093074 0.767519 -11.993170 35 15 10
0.086621 0.767211 -11.988361 32 20 16
0.080206 0.767211 -11.988361 33 24 20
0.073820 0.767519 -11.993170 27 22 19
0.067375 0.767211 -11.988361 20 21 17
0.060911 0.766596 -11.978755 20 24 19
0.387679 0.759882 -11.973958 20 22 16
0.381424 0.760186 -11.978755 20 22 16
0.375164 0.760491 -11.983556 22 23 14
0.368899 0.760796 -11.988361 22 23 14
0.362483 0.760796 -11.988361 23 24 15
0.356068 0.760796 -11.988361 19 22 13
0.349793 0.761101 -11.993170 19 21 15
0.343513 0.761406 -11.997983 21 23 17
0.337092 0.761406 -11.997983 18 22 16
0.330671 0.761406 -11.997983 18 22 16
0.324381 0.761712 -12.002799 19 23 17
0.317958 0.761712 -12.002799 19 23 17
0.311535 0.761712 -12.002799 21 23 17
0.305112 0.761712 -12.002799 18 20 14
0.298569 0.761406 -11.997983 18 18 12
0.292148 0.761406 -11.997983 24 24 18
0.285728 0.761406 -11.997983 23 20 16
0.279307 0.761406 -11.997983 21 18 14
0.272887 0.761406 -11.997983 42 37 36
0.266466 0.761406 -11.997983 92 87 86
0.260045 0.761406 -11.997983 64 56 56
0.253625 0.761406 -11.997983 30 25 24
0.247204 0.761406 -11.997983 24 20 19
0.240784 0.761406 -11.997983 21 19 18
0.234363 0.761406 -11.997983 24 22 21
0.227943 0.761406 -11.997983 17 18 16
0.221611 0.761712 -12.002799 18 18 18
0.215188 0.761712 -12.002799 18 18 18
0.208765 0.761712 -12.002799 20 20 20
0.202423 0.762018 -12.007620 14 15 13
0.195997 0.762018 -12.007620 19 20 16
0.189572 0.762018 -12.007620 32 29 24
0.183146 0.762018 -12.007620 99 89 82
0.176720 0.762018 -12.007620 202 185 176
0.170294 0.762018 -12.007620 178 153 143
0.163869 0.762018 -12.007620 137 105 94
0.157443 0.762018 -12.007620 99 57 52
0.151017 0.762018 -12.007620 72 21 18
0.144534 0.761712 -12.002799 74 15 13
0.138055 0.761406 -11.997983 83 14 11
0.131635 0.761406 -11.997983 89 9 8
0.125164 0.761101 -11.993170 92 6 6
0.118746 0.761101 -11.993170 92 9 8
0.112283 0.760796 -11.988361 86 12 10
0.105867 0.760796 -11.988361 70 15 12
0.099452 0.760796 -11.988361 54 18 12
0.093037 0.760796 -11.988361 39 17 11
0.086586 0.760491 -11.983556 31 19 13
0.080174 0.760491 -11.983556 27 20 17
0.073790 0.760796 -11.988361 23 20 16
0.067348 0.760491 -11.983556 20 21 19
0.387523 0.753172 -11.969165 19 21 15
0.381271 0.753474 -11.973958 20 22 16
0.375164 0.754078 -11.983556 23 24 15
0.368899 0.754380 -11.988361 24 25 16
0.362483 0.754380 -11.988361 21 24 15
0.356068 0.754380 -11.988361 19 22 13
0.349793 0.754683 -11.993170 21 23 17
0.343513 0.754986 -11.997983 21 25 19
0.337092 0.754986 -11.997983 18 22 17
0.330671 0.754986 -11.997983 16 20 15
0.324251 0.754986 -11.997983 18 22 16
0.317830 0.754986 -11.997983 20 24 18
0.311410 0.754986 -11.997983 20 22 16
0.304989 0.754986 -11.997983 20 22 16
0.298569 0.754986 -11.997983 20 20 14
0.292148 0.754986 -11.997983 18 18 12
0.285728 0.754986 -11.997983 20 17 13
0.279307 0.754986 -11.997983 24 19 18
0.272777 0.754683 -11.993170 73 65 66
0.266359 0.754683 -11.993170 88 80 81
0.260045 0.754986 -11.997983 43 35 36
0.253625 0.754986 -11.997983 24 18 19
0.247204 0.754986 -11.997983 26 22 21
0.240784 0.754986 -11.997983 23 21 20
0.234363 0.754986 -11.997983 23 21 20
0.227943 0.754986 -11.997983 19 17 16
0.221522 0.754986 -11.997983 19 17 16
0.215188 0.755289 -12.002799 18 16 15
0.208765 0.755289 -12.002799 20 18 17
0.202342 0.755289 -12.002799 19 18 14
0.195997 0.755592 -12.007620 29 26 22
0.189572 0.755592 -12.007620 60 54 47
0.183146 0.755592 -12.007620 178 165 157
0.176720 0.755592 -12.007620 200 178 167
0.170294 0.755592 -12.007620 156 124 113
0.163869 0.755592 -12.007620 118 77 68
0.157380 0.755289 -12.002799 77 26 23
0.150957 0.755289 -12.002799 62 7 4
0.144476 0.754986 -11.997983 63 6 4
0.138055 0.754986 -11.997983 69 8 6
0.131582 0.754683 -11.993170 76 9 6
0.125164 0.754683 -11.993170 79 8 5
0.118698 0.754380 -11.988361 79 8 4
0.112238 0.754078 -11.983556 74 10 5
0.105825 0.754078 -11.983556 65 15 9
0.099412 0.754078 -11.983556 52 16 10
0.092999 0.754078 -11.983556 37 15 9
0.086517 0.753474 -11.973958 30 18 12
0.080109 0.753474 -11.973958 28 21 18
0.073761 0.754078 -11.983556 25 22 18
0.067294 0.753474 -11.973958 20 21 19
0.387523 0.746767 -11.969165 20 22 16
0.381271 0.747066 -11.973958 21 23 17
0.375013 0.747366 -11.978755 21 24 15
0.368751 0.747665 -11.983556 21 24 15
0.362483 0.747965 -11.988361 21 24 15
0.356068 0.747965 -11.988361 17 22 13
0.349793 0.748265 -11.993170 18 22 16
0.343513 0.748565 -11.997983 20 24 18
0.337092 0.748565 -11.997983 18 22 17
0.330671 0.748565 -11.997983 16 20 15
0.324251 0.748565 -11.997983 18 22 16
0.317830 0.748565 -11.997983 20 24 18
0.311410 0.748565 -11.997983 21 23 17
0.304989 0.748565 -11.997983 23 25 19
0.298449 0.748265 -11.993170 19 19 13
0.292031 0.748265 -11.993170 13 10 6
0.285613 0.748265 -11.993170 19 14 13
0.279195 0.748265 -11.993170 44 39 38
0.272777 0.748265 -11.993170 90 82 83
0.266359 0.748265 -11.993170 57 49 50
0.259941 0.748265 -11.993170 32 24 25
0.253523 0.748265 -11.993170 22 16 17
0.247105 0.748265 -11.993170 26 21 22
0.240687 0.748265 -11.993170 22 18 17
0.234269 0.748265 -11.993170 19 17 16
0.227851 0.748265 -11.993170 18 16 15
0.221522 0.748565 -11.997983 17 15 14
0.215102 0.748565 -11.997983 18 15 11
0.208681 0.748565 -11.997983 19 16 12
0.202342 0.748866 -12.002799 27 24 19
0.195919 0.748866 -12.002799 44 38 33
0.189495 0.748866 -12.002799 138 126 120
0.183072 0.748866 -12.002799 210 189 181
0.176649 0.748866 -12.002799 158 127 118
0.170226 0.748866 -12.002799 127 86 77
0.163803 0.748866 -12.002799 93 41 34
0.157317 0.748565 -11.997983 78 17 15
0.150896 0.748565 -11.997983 70 6 6
0.144418 0.748265 -11.993170 62 5 3
0.137944 0.747965 -11.988361 60 5 2
0.131476 0.747665 -11.983556 62 7 2
0.125063 0.747665 -11.983556 63 8 3
0.118603 0.747366 -11.978755 64 8 3
0.112148 0.747066 -11.973958 63 11 5
0.105698 0.746767 -11.969165 55 13 8
0.099332 0.747066 -11.973958 46 14 8
0.092925 0.747066 -11.973958 35 16 9
0.086448 0.746468 -11.964375 30 20 13
0.387368 0.740066 -11.964375 19 21 15
0.381118 0.740362 -11.969165 20 22 16
0.375013 0.740955 -11.978755 20 22 16
0.368751 0.741252 -11.983556 16 20 14
0.362338 0.741252 -11.983556 20 25 16
0.356068 0.741550 -11.988361 14 22 12
0.349793 0.741847 -11.993170 13 20 13
0.343375 0.741847 -11.993170 16 23 16
0.337092 0.742145 -11.997983 16 22 17
0.330671 0.742145 -11.997983 15 21 16
0.324251 0.742145 -11.997983 18 22 17
0.317830 0.742145 -11.997983 19 23 18
0.311410 0.742145 -11.997983 20 22 16
0.304867 0.741847 -11.993170 20 22 16
0.298449 0.741847 -11.993170 12 11 7
0.292031 0.741847 -11.993170 14 11 7
0.285613 0.741847 -11.993170 26 21 20
0.279195 0.741847 -11.993170 75 70 69
0.272668 0.741550 -11.988361 76 68 69
0.266252 0.741550 -11.988361 40 32 33
0.259837 0.741550 -11.988361 27 20 23
0.253523 0.741847 -11.993170 23 17 18
0.247006 0.741550 -11.988361 26 21 22
0.240687 0.741847 -11.993170 19 17 16
0.234175 0.741550 -11.988361 22 18 17
0.227851 0.741847 -11.993170 23 20 16
0.221433 0.741847 -11.993170 20 17 13
0.215102 0.742145 -11.997983 20 16 11
0.208681 0.742145 -11.997983 23 19 14
0.202261 0.742145 -11.997983 36 30 25
0.195840 0.742145 -11.997983 104 94 87
0.189495 0.742443 -12.002799 205 187 180
0.182999 0.742145 -11.997983 185 157 150
0.176578 0.742145 -11.997983 143 104 96
0.170158 0.742145 -11.997983 111 59 52
0.163737 0.742145 -11.997983 87 25 19
0.157254 0.741847 -11.993170 83 12 9
0.150836 0.741847 -11.993170 81 9 9
0.144302 0.741252 -11.983556 69 8 6
0.137834 0.740955 -11.978755 58 5 2
0.131371 0.740659 -11.973958 50 5 1
0.124963 0.740659 -11.973958 45 7 2
0.118508 0.740362 -11.969165 44 8 2
0.112058 0.740066 -11.964375 47 13 7
0.105656 0.740066 -11.964375 43 13 8
0.099253 0.740066 -11.964375 41 19 13
0.092850 0.740066 -11.964375 36 22 16
0.387523 0.733957 -11.969165 19 21 15
0.381118 0.733957 -11.969165 18 22 16
0.375013 0.734545 -11.978755 17 21 15
0.368751 0.734839 -11.983556 12 19 12
0.362338 0.734839 -11.983556 20 28 18
0.356068 0.735134 -11.988361 16 24 14
0.349793 0.735429 -11.993170 15 22 15
0.343375 0.735429 -11.993170 16 23 16
0.337092 0.735724 -11.997983 17 23 18
0.330671 0.735724 -11.997983 17 23 18
0.324121 0.735429 -11.993170 20 24 19
0.317830 0.735724 -11.997983 18 22 17
0.311285 0.735429 -11.993170 21 23 17
0.304867 0.735429 -11.993170 17 19 13
0.298329 0.735134 -11.988361 13 10 6
0.291914 0.735134 -11.988361 13 10 6
0.285498 0.735134 -11.988361 50 45 44
0.279083 0.735134 -11.988361 91 86 85
0.272668 0.735134 -11.988361 52 44 45
0.266252 0.735134 -11.988361 33 25 26
0.259837 0.735134 -11.988361 27 20 23
0.253421 0.735134 -11.988361 25 20 22
0.247006 0.735134 -11.988361 25 23 23
0.240591 0.735134 -11.988361 22 20 19
0.234175 0.735134 -11.988361 27 24 20
0.227760 0.735134 -11.988361 27 24 19
0.221433 0.735429 -11.993170 21 17 12
0.215015 0.735429 -11.993170 25 19 14
0.208681 0.735724 -11.997983 33 27 22
0.202261 0.735724 -11.997983 77 67 60
0.195840 0.735724 -11.997983 189 173 166
0.189419 0.735724 -11.997983 202 179 171
0.182999 0.735724 -11.997983 151 115 107
0.176578 0.735724 -11.997983 122 75 67
0.170090 0.735429 -11.993170 93 34 25
0.163672 0.735429 -11.993170 83 12 8
0.157191 0.735134 -11.988361 92 10 9
0.150775 0.735134 -11.988361 90 10 11
0.144244 0.734545 -11.978755 74 7 6
0.137723 0.733957 -11.969165 63 8 5
0.131318 0.733957 -11.969165 48 8 3
0.124863 0.733663 -11.964375 39 9 4
0.118413 0.733370 -11.959589 33 7 1
0.112013 0.733370 -11.959589 31 9 4
0.105613 0.733370 -11.959589 31 11 6
0.099213 0.733370 -11.959589 34 18 12
0.387523 0.727552 -11.969165 18 20 14
0.381118 0.727552 -11.969165 18 22 16
0.375013 0.728135 -11.978755 18 22 16
0.368751 0.728427 -11.983556 15 22 15
0.362338 0.728427 -11.983556 19 27 17
0.356068 0.728719 -11.988361 16 25 15
0.349793 0.729011 -11.993170 17 24 17
0.343375 0.729011 -11.993170 17 24 17
0.336957 0.729011 -11.993170 17 23 18
0.330539 0.729011 -11.993170 18 24 19
0.324121 0.729011 -11.993170 21 25 20
0.317703 0.729011 -11.993170 19 23 18
0.311285 0.729011 -11.993170 21 22 18
0.304745 0.728719 -11.988361 18 19 15
0.298329 0.728719 -11.988361 18 15 11
0.291914 0.728719 -11.988361 26 23 19
0.285498 0.728719 -11.988361 74 69 68
0.279083 0.728719 -11.988361 74 69 68
0.272558 0.728427 -11.983556 36 28 29
0.266146 0.728427 -11.983556 29 20 23
0.259837 0.728719 -11.988361 26 19 22
0.253421 0.728719 -11.988361 24 19 21
0.247006 0.728719 -11.988361 23 21 21
0.240591 0.728719 -11.988361 21 19 18
0.234175 0.728719 -11.988361 24 21 17
0.227760 0.728719 -11.988361 25 21 16
0.221345 0.728719 -11.988361 22 16 11
0.215015 0.729011 -11.993170 32 24 17
0.208597 0.729011 -11.993170 61 51 44
0.202179 0.729011 -11.993170 149 136 128
0.195761 0.729011 -11.993170 211 192 185
0.189343 0.729011 -11.993170 174 145 138
0.182925 0.729011 -11.993170 128 86 79
0.176508 0.729011 -11.993170 108 54 47
0.170021 0.728719 -11.988361 100 32 25
0.163606 0.728719 -11.988361 103 25 19
0.157128 0.728427 -11.983556 102 12 11
0.150654 0.728135 -11.978755 100 10 10
0.144129 0.727552 -11.969165 81 6 4
0.137668 0.727261 -11.964375 71 10 8
0.131213 0.726970 -11.959589 56 11 8
0.124813 0.726970 -11.959589 43 12 9
0.118366 0.726679 -11.954807 33 10 8
0.381118 0.721147 -11.969165 18 22 16
0.375013 0.721725 -11.978755 18 25 18
0.368751 0.722014 -11.983556 18 26 16
0.362338 0.722014 -11.983556 14 23 13
0.356068 0.722303 -11.988361 15 24 14
0.349652 0.722303 -11.988361 16 24 17
0.343375 0.722593 -11.993170 15 23 16
0.336957 0.722593 -11.993170 15 21 16
0.330539 0.722593 -11.993170 16 22 17
0.323991 0.722303 -11.988361 19 23 18
0.317575 0.722303 -11.988361 17 21 16
0.311160 0.722303 -11.988361 19 20 16
0.304623 0.722014 -11.983556 23 22 18
0.298210 0.722014 -11.983556 18 15 11
0.291797 0.722014 -11.983556 55 50 47
0.285384 0.722014 -11.983556 84 79 78
0.278971 0.722014 -11.983556 46 41 40
0.272558 0.722014 -11.983556 26 20 21
0.266146 0.722014 -11.983556 30 24 25
0.259733 0.722014 -11.983556 26 19 22
0.253320 0.722014 -11.983556 24 19 20
0.246907 0.722014 -11.983556 22 20 20
0.240494 0.722014 -11.983556 20 18 17
0.234081 0.722014 -11.983556 23 20 16
0.227669 0.722014 -11.983556 24 20 15
0.221256 0.722014 -11.983556 28 20 13
0.214929 0.722303 -11.988361 47 35 29
0.208514 0.722303 -11.988361 125 109 102
0.202098 0.722303 -11.988361 211 192 185
0.195683 0.722303 -11.988361 182 159 151
0.189268 0.722303 -11.988361 139 105 99
0.182852 0.722303 -11.988361 93 47 40
0.176437 0.722303 -11.988361 80 22 16
0.169953 0.722014 -11.983556 99 28 24
0.163475 0.721725 -11.978755 104 23 20
0.157002 0.721436 -11.973958 104 12 11
0.150534 0.721147 -11.969165 104 11 12
0.144071 0.720858 -11.964375 90 8 7
0.137613 0.720570 -11.959589 81 11 11
0.131161 0.720282 -11.954807 61 10 8
0.124763 0.720282 -11.954807 48 13 10
0.368603 0.715314 -11.978755 16 25 15
0.362193 0.715314 -11.978755 18 26 16
0.355925 0.715601 -11.983556 17 27 15
0.349512 0.715601 -11.983556 15 24 14
0.343237 0.715888 -11.988361 18 29 19
0.336822 0.715888 -11.988361 15 23 16
0.330406 0.715888 -11.988361 15 23 16
0.323861 0.715601 -11.983556 16 22 17
0.317448 0.715601 -11.983556 19 20 16
0.311035 0.715601 -11.983556 27 26 22
0.304500 0.715314 -11.978755 21 16 13
0.298090 0.715314 -11.978755 38 33 30
0.291680 0.715314 -11.978755 86 81 78
0.285270 0.715314 -11.978755 70 65 62
0.278859 0.715314 -11.978755 29 26 22
0.272340 0.715028 -11.973958 26 24 23
0.266039 0.715314 -11.978755 28 26 25
0.259629 0.715314 -11.978755 25 19 20
0.253218 0.715314 -11.978755 24 18 19
0.246808 0.715314 -11.978755 22 20 20
0.240398 0.715314 -11.978755 14 15 13
0.233988 0.715314 -11.978755 21 20 16
0.227577 0.715314 -11.978755 27 23 18
0.221256 0.715601 -11.983556 37 25 19
0.214843 0.715601 -11.983556 97 78 73
0.208430 0.715601 -11.983556 200 176 170
0.202017 0.715601 -11.983556 213 185 178
0.195604 0.715601 -11.983556 151 122 115
0.189192 0.715601 -11.983556 99 63 57
0.182779 0.715601 -11.983556 69 22 18
0.176295 0.715314 -11.978755 66 10 5
0.169885 0.715314 -11.978755 79 12 9
0.163409 0.715028 -11.973958 88 11 9
0.156939 0.714742 -11.969165 98 10 10
0.150473 0.714456 -11.964375 96 5 8
0.144013 0.714170 -11.959589 95 6 9
0.137558 0.713884 -11.954807 87 9 10
0.362048 0.708620 -11.973958 20 26 15
0.355783 0.708904 -11.978755 19 25 14
0.349512 0.709188 -11.983556 17 25 15
0.343099 0.709188 -11.983556 18 27 17
0.336687 0.709188 -11.983556 15 23 16
0.330274 0.709188 -11.983556 17 24 17
0.323731 0.708904 -11.978755 19 23 18
0.317321 0.708904 -11.978755 19 20 16
0.310786 0.708620 -11.973958 23 20 16
0.304379 0.708620 -11.973958 26 21 18
0.297852 0.708336 -11.969165 67 62 59
0.291446 0.708336 -11.969165 78 73 70
0.285041 0.708336 -11.969165 45 41 40
0.278748 0.708620 -11.973958 22 21 17
0.272231 0.708336 -11.969165 17 18 16
0.265932 0.708620 -11.973958 21 19 18
0.259525 0.708620 -11.973958 19 14 13
0.253117 0.708620 -11.973958 28 23 22
0.246709 0.708620 -11.973958 24 22 21
0.240302 0.708620 -11.973958 18 19 15
0.233894 0.708620 -11.973958 19 19 13
0.227486 0.708620 -11.973958 28 25 17
0.221167 0.708904 -11.978755 68 56 50
0.214757 0.708904 -11.978755 168 149 142
0.208347 0.708904 -11.978755 230 202 195
0.201936 0.708904 -11.978755 175 141 135
0.195526 0.708904 -11.978755 114 76 71
0.189116 0.708904 -11.978755 82 37 33
0.182706 0.708904 -11.978755 63 12 9
0.176225 0.708620 -11.973958 59 4 1
0.169749 0.708336 -11.969165 65 4 2
0.163279 0.708053 -11.964375 71 4 3
0.156813 0.707770 -11.959589 79 3 4
0.150353 0.707487 -11.954807 84 4 5
0.143956 0.707487 -11.954807 90 7 9
0.349232 0.702212 -11.973958 22 25 16
0.342962 0.702494 -11.978755 21 24 15
0.336552 0.702494 -11.978755 17 21 15
0.330009 0.702212 -11.973958 18 22 16
0.323472 0.701931 -11.969165 21 22 18
0.317067 0.701931 -11.969165 16 17 13
0.310662 0.701931 -11.969165 16 14 13
0.304257 0.701931 -11.969165 40 36 35
0.297732 0.701651 -11.964375 82 78 77
0.291330 0.701651 -11.964375 59 55 54
0.284927 0.701651 -11.964375 27 22 23
0.278636 0.701931 -11.969165 21 19 18
0.272231 0.701931 -11.969165 19 17 17
0.265826 0.701931 -11.969165 19 17 16
0.259421 0.701931 -11.969165 21 19 18
0.253016 0.701931 -11.969165 24 22 21
0.246709 0.702212 -11.973958 21 17 16
0.240205 0.701931 -11.969165 22 19 15
0.233800 0.701931 -11.969165 21 21 15
0.227395 0.701931 -11.969165 49 46 38
0.221079 0.702212 -11.973958 130 118 112
0.214671 0.702212 -11.973958 217 195 189
0.208263 0.702212 -11.973958 195 166 159
0.201856 0.702212 -11.973958 145 105 100
0.195448 0.702212 -11.973958 110 58 52
0.189040 0.702212 -11.973958 80 22 17
0.182559 0.701931 -11.969165 72 16 11
0.176084 0.701651 -11.964375 66 10 5
0.169613 0.701370 -11.959589 59 4 0
0.163213 0.701370 -11.959589 59 4 0
0.156751 0.701089 -11.954807 61 6 3
0.150293 0.700809 -11.950029 63 6 4
0.336417 0.695805 -11.973958 23 23 17
0.329877 0.695526 -11.969165 21 23 17
0.323343 0.695248 -11.964375 21 22 18
0.316940 0.695248 -11.964375 14 15 11
0.310537 0.695248 -11.964375 19 17 16
0.304135 0.695248 -11.964375 59 57 56
0.297613 0.694970 -11.959589 66 64 64
0.291213 0.694970 -11.959589 34 32 32
0.284927 0.695248 -11.964375 21 19 19
0.278525 0.695248 -11.964375 20 18 18
0.272122 0.695248 -11.964375 20 18 18
0.265720 0.695248 -11.964375 22 20 20
0.259421 0.695526 -11.969165 20 21 19
0.253016 0.695526 -11.969165 17 18 14
0.246611 0.695526 -11.969165 22 19 15
0.240205 0.695526 -11.969165 24 21 16
0.233800 0.695526 -11.969165 36 34 26
0.227395 0.695526 -11.969165 101 96 87
0.220990 0.695526 -11.969165 197 184 176
0.214585 0.695526 -11.969165 214 191 183
0.208180 0.695526 -11.969165 157 123 117
0.201775 0.695526 -11.969165 113 65 59
0.195370 0.695526 -11.969165 101 37 33
0.188964 0.695526 -11.969165 92 21 18
0.182486 0.695248 -11.964375 81 14 11
0.176013 0.694970 -11.959589 75 12 8
0.169545 0.694692 -11.954807 70 14 9
0.163148 0.694692 -11.954807 55 7 1
0.329745 0.688845 -11.964375 24 24 18
0.323213 0.688570 -11.959589 21 20 16
0.316813 0.688570 -11.959589 19 17 16
0.310413 0.688570 -11.959589 32 32 32
0.304013 0.688570 -11.959589 64 64 64
0.297613 0.688570 -11.959589 42 42 42
0.291213 0.688570 -11.959589 22 20 20
0.284813 0.688570 -11.959589 21 18 20
0.278413 0.688570 -11.959589 19 14 16
0.272013 0.688570 -11.959589 20 15 17
0.265720 0.688845 -11.964375 25 20 21
0.259317 0.688845 -11.964375 16 17 13
0.252914 0.688845 -11.964375 15 17 11
0.246512 0.688845 -11.964375 26 23 18
0.240109 0.688845 -11.964375 31 27 22
0.233707 0.688845 -11.964375 70 64 57
0.227304 0.688845 -11.964375 164 155 146
0.220902 0.688845 -11.964375 217 199 192
0.214499 0.688845 -11.964375 178 150 143
0.208097 0.688845 -11.964375 134 89 85
0.201694 0.688845 -11.964375 105 47 42
0.195291 0.688845 -11.964375 103 28 26
0.188889 0.688845 -11.964375 103 20 18
0.182413 0.688570 -11.959589 96 15 12
0.175943 0.688295 -11.954807 88 14 10
0.297494 0.681897 -11.954807 26 26 26
0.291097 0.681897 -11.954807 21 19 19
0.284699 0.681897 -11.954807 25 20 21
0.278413 0.682170 -11.959589 25 20 21
0.272013 0.682170 -11.959589 23 16 19
0.265613 0.682170 -11.959589 22 17 18
0.259213 0.682170 -11.959589 17 18 14
0.252914 0.682443 -11.964375 15 17 11
0.246512 0.682443 -11.964375 19 19 13
0.240109 0.682443 -11.964375 51 48 40
0.233613 0.682170 -11.959589 135 126 117
0.227213 0.682170 -11.959589 218 203 194
0.220813 0.682170 -11.959589 191 170 162
0.214413 0.682170 -11.959589 136 102 96
0.208013 0.682170 -11.959589 103 53 47
0.201613 0.682170 -11.959589 112 45 42
0.195213 0.682170 -11.959589 123 44 41
0.188813 0.682170 -11.959589 115 28 26
0.182340 0.681897 -11.954807 108 18 17
0.271905 0.675500 -11.954807 25 19 20
0.265613 0.675770 -11.959589 22 17 16
0.259213 0.675770 -11.959589 20 20 14
0.252813 0.675770 -11.959589 19 20 11
0.246413 0.675770 -11.959589 35 36 27
0.240013 0.675770 -11.959589 104 102 92
0.233613 0.675770 -11.959589 196 185 177
0.227213 0.675770 -11.959589 215 196 188
0.220725 0.675500 -11.954807 153 125 118
0.214328 0.675500 -11.954807 102 63 55
0.207930 0.675500 -11.954807 87 31 26
0.265507 0.669102 -11.954807 30 19 15
0.259110 0.669102 -11.954807 24 16 9
0.252813 0.669370 -11.959589 35 28 19
0.246413 0.669370 -11.959589 77 70 61
0.240013 0.669370 -11.959589 165 155 145
0.233520 0.669102 -11.954807 222 203 195
0.227122 0.669102 -11.954807 168 140 133
0.220725 0.669102 -11.954807 117 81 73
0.259110 0.662705 -11.954807 40 21 14
0.252712 0.662705 -11.954807 78 57 49
0.246315 0.662705 -11.954807 147 126 118
0.239917 0.662705 -11.954807 222 196 189
0.233520 0.662705 -11.954807 198 169 162
0.227032 0.662440 -11.950029 135 98 90
0.252712 0.656307 -11.954807 136 92 85
0.246315 0.656307 -11.954807 208 162 155
0.239821 0.656045 -11.950029 234 186 180
0.058050 0.571754 -11.416179 32 22 15
0.058050 0.565645 -11.416179 29 19 12
0.070269 0.559536 -11.416179 108 8 6
0.064159 0.559536 -11.416179 63 18 15
0.058050 0.559536 -11.416179 30 18 12
0.051921 0.559322 -11.411821 25 21 16
0.094705 0.553427 -11.416179 183 9 9
0.088562 0.553216 -11.411821 180 10 9
0.082487 0.553427 -11.416179 166 8 8
0.076378 0.553427 -11.416179 147 7 8
0.070269 0.553427 -11.416179 112 9 7
0.064159 0.553427 -11.416179 67 19 17
0.058050 0.553427 -11.416179 35 21 15
0.051901 0.553004 -11.407468 25 21 16
0.045762 0.552583 -11.398769 23 23 17
-0.893025 0.676985 -13.964957 17 19 13
-0.952810 0.676985 -13.964957 15 16 12
-0.960283 0.676985 -13.964957 16 17 13
-0.967757 0.676985 -13.964957 17 18 14
0.119142 0.547318 -11.416179 198 20 19
0.094705 0.547318 -11.416179 183 9 9
0.088562 0.547109 -11.411821 177 7 6
0.082455 0.547109 -11.411821 168 10 10
0.076349 0.547109 -11.411821 150 7 9
0.070269 0.547318 -11.416179 116 10 9
0.064159 0.547318 -11.416179 68 19 17
0.058050 0.547318 -11.416179 37 21 15
0.051921 0.547109 -11.411821 26 20 15
-0.863133 0.669512 -13.964957 15 19 14
-0.871013 0.669825 -13.971482 15 19 14
-0.878079 0.669512 -13.964957 16 20 15
-0.885552 0.669512 -13.964957 17 21 16
-0.893025 0.669512 -13.964957 15 16 12
-0.900078 0.669199 -13.958437 19 20 16
-0.907971 0.669512 -13.964957 17 21 16
-0.915017 0.669199 -13.958437 15 19 14
-0.922487 0.669199 -13.958437 15 18 16
-0.930391 0.669512 -13.964957 16 19 17
-0.937864 0.669512 -13.964957 17 20 18
-0.944896 0.669199 -13.958437 17 22 20
-0.952365 0.669199 -13.958437 14 17 15
-0.959835 0.669199 -13.958437 15 19 14
-0.967757 0.669512 -13.964957 14 18 13
-0.975230 0.669512 -13.964957 12 16 11
-1.019592 0.669199 -13.958437 15 22 15
-1.026104 0.668575 -13.945416 15 22 15
0.125299 0.541415 -11.420540 194 16 15
0.119142 0.541208 -11.416179 197 18 19
0.113033 0.541208 -11.416179 191 14 17
0.106924 0.541208 -11.416179 186 9 12
0.100815 0.541208 -11.416179 186 7 8
0.094705 0.541208 -11.416179 185 9 9
0.088562 0.541002 -11.411821 177 7 6
0.082455 0.541002 -11.411821 173 13 13
0.076349 0.541002 -11.411821 154 9 11
0.070269 0.541208 -11.416179 120 12 11
0.064159 0.541208 -11.416179 68 17 15
0.058050 0.541208 -11.416179 36 17 12
0.051921 0.541002 -11.411821 25 19 14
-0.862730 0.661730 -13.958437 17 21 16
-0.870606 0.662039 -13.964957 18 22 17
-0.877669 0.661730 -13.958437 16 20 15
-0.885139 0.661730 -13.958437 14 18 13
-0.892608 0.661730 -13.958437 20 21 17
-0.899658 0.661421 -13.951923 21 22 18
-0.907124 0.661421 -13.951923 16 20 15
-0.914590 0.661421 -13.951923 14 18 13
-0.922487 0.661730 -13.958437 15 18 16
-0.929956 0.661730 -13.958437 17 20 18
-0.937426 0.661730 -13.958437 13 18 16
-0.944455 0.661421 -13.951923 12 17 15
-0.951921 0.661421 -13.951923 12 17 15
-0.959387 0.661421 -13.951923 14 19 17
-0.967305 0.661730 -13.958437 16 19 17
-0.974774 0.661730 -13.958437 16 20 15
-0.997183 0.661730 -13.958437 16 20 14
-1.004653 0.661730 -13.958437 15 19 13
-1.012123 0.661730 -13.958437 12 19 12
-1.019117 0.661421 -13.951923 11 18 11
-1.026104 0.661112 -13.945416 12 19 12
-1.032603 0.660496 -13.932420 13 20 13
-1.040059 0.660496 -13.932420 13 20 13
0.161907 0.535099 -11.416179 189 6 10
0.155797 0.535099 -11.416179 192 9 13
0.149688 0.535099 -11.416179 189 8 12
0.143634 0.535303 -11.420540 187 7 8
0.137522 0.535303 -11.420540 189 10 9
0.131411 0.535303 -11.420540 191 12 11
0.125251 0.535099 -11.416179 194 15 16
0.119142 0.535099 -11.416179 194 18 18
0.113033 0.535099 -11.416179 190 13 16
0.106924 0.535099 -11.416179 188 11 14
0.100815 0.535099 -11.416179 191 12 15
0.094669 0.534895 -11.411821 185 8 11
0.088528 0.534691 -11.407468 178 6 6
0.082424 0.534691 -11.407468 169 6 7
0.076349 0.534895 -11.411821 152 6 8
0.070269 0.535099 -11.416179 117 7 7
0.064159 0.535099 -11.416179 67 13 12
0.058050 0.535099 -11.416179 40 21 16
0.051921 0.534895 -11.411821 27 21 16
-0.863133 0.654565 -13.964957 18 21 19
-0.870606 0.654565 -13.964957 18 21 19
-0.878079 0.654565 -13.964957 16 19 17
-0.885139 0.654260 -13.958437 13 16 14
-0.892608 0.654260 -13.958437 17 20 18
-0.899658 0.653955 -13.951923 15 18 16
-0.907548 0.654260 -13.958437 16 19 17
-0.915017 0.654260 -13.958437 14 17 15
-0.922487 0.654260 -13.958437 17 22 21
-0.929956 0.654260 -13.958437 14 19 18
-0.937426 0.654260 -13.958437 17 22 21
-0.944896 0.654260 -13.958437 10 15 14
-0.952365 0.654260 -13.958437 14 20 19
-0.959835 0.654260 -13.958437 10 17 14
-0.967305 0.654260 -13.958437 17 22 20
-0.974774 0.654260 -13.958437 11 17 12
-0.990639 0.654871 -13.971482 16 22 17
-0.997183 0.654260 -13.958437 11 17 12
-1.004653 0.654260 -13.958437 15 21 16
-1.012123 0.654260 -13.958437 12 18 13
-1.019117 0.653955 -13.951923 12 18 13
-1.026104 0.653650 -13.945416 12 18 13
-1.032603 0.653040 -13.932420 13 19 14
-1.039575 0.652736 -13.925930 14 20 15
0.198108 0.527781 -11.390085 187 6 11
0.191940 0.527580 -11.385747 190 9 14
0.185847 0.527580 -11.385747 193 10 14
0.179685 0.527379 -11.381413 191 8 12
0.173661 0.527580 -11.385747 190 7 11
0.167823 0.528385 -11.403117 188 5 9
0.161907 0.528990 -11.416179 188 5 9
0.155857 0.529192 -11.420540 190 7 11
0.149745 0.529192 -11.420540 185 4 8
0.143634 0.529192 -11.420540 188 7 11
0.137522 0.529192 -11.420540 194 14 15
0.131411 0.529192 -11.420540 194 16 15
0.125299 0.529192 -11.420540 194 15 16
0.119142 0.528990 -11.416179 192 16 16
0.113076 0.529192 -11.420540 190 13 16
0.106965 0.529192 -11.420540 192 15 18
0.100853 0.529192 -11.420540 190 11 14
0.094705 0.528990 -11.416179 184 7 10
0.088562 0.528788 -11.411821 177 5 5
0.082455 0.528788 -11.411821 169 6 7
0.076349 0.528788 -11.411821 154 8 10
0.070269 0.528990 -11.416179 119 9 9
0.064159 0.528990 -11.416179 70 14 13
0.058028 0.528788 -11.411821 38 18 13
0.051901 0.528586 -11.407468 26 20 15
-0.863133 0.647092 -13.964957 18 21 19
-0.870606 0.647092 -13.964957 17 20 18
-0.878079 0.647092 -13.964957 18 21 19
-0.885552 0.647092 -13.964957 16 19 17
-0.892608 0.646790 -13.958437 15 18 16
-0.900078 0.646790 -13.958437 15 16 14
-0.907548 0.646790 -13.958437 19 20 18
-0.915017 0.646790 -13.958437 15 18 16
-0.922487 0.646790 -13.958437 19 22 20
-0.929956 0.646790 -13.958437 20 23 21
-0.937426 0.646790 -13.958437 10 12 12
-0.944896 0.646790 -13.958437 10 15 13
-0.952365 0.646790 -13.958437 13 18 17
-0.959835 0.646790 -13.958437 18 23 21
-0.967305 0.646790 -13.958437 17 22 20
-0.974774 0.646790 -13.958437 19 24 22
-0.990639 0.647395 -13.971482 13 19 14
-0.997649 0.647092 -13.964957 13 19 14
-1.004653 0.646790 -13.958437 9 15 10
-1.012123 0.646790 -13.958437 11 17 12
-1.019117 0.646488 -13.951923 11 17 12
-1.026104 0.646187 -13.945416 12 18 13
-1.032603 0.645585 -13.932420 13 19 14
-1.039575 0.645284 -13.925930 14 20 15
-1.047027 0.645284 -13.925930 15 21 16
0.204281 0.521884 -11.394425 185 6 9
0.198108 0.521686 -11.390085 180 0 3
0.191940 0.521487 -11.385747 185 4 8
0.185847 0.521487 -11.385747 187 6 10
0.179754 0.521487 -11.385747 186 5 9
0.173661 0.521487 -11.385747 186 5 9
0.167823 0.522282 -11.403117 186 5 9
0.161968 0.523080 -11.420540 188 7 11
0.155857 0.523080 -11.420540 191 10 14
0.149745 0.523080 -11.420540 187 6 11
0.143634 0.523080 -11.420540 187 6 10
0.137522 0.523080 -11.420540 191 11 12
0.131411 0.523080 -11.420540 191 12 13
0.125299 0.523080 -11.420540 194 15 18
0.119188 0.523080 -11.420540 194 17 20
0.113076 0.523080 -11.420540 188 13 17
0.106965 0.523080 -11.420540 188 10 15
0.100853 0.523080 -11.420540 187 8 11
0.094705 0.522881 -11.416179 183 6 9
0.088562 0.522681 -11.411821 178 6 6
0.082455 0.522681 -11.411821 170 7 8
0.076378 0.522881 -11.416179 157 8 11
0.070269 0.522881 -11.416179 123 11 11
0.064159 0.522881 -11.416179 72 15 14
0.058050 0.522881 -11.416179 38 18 13
0.051921 0.522681 -11.411821 27 21 16
-0.847790 0.639321 -13.958437 11 12 10
-0.863133 0.639619 -13.964957 9 10 8
-0.870606 0.639619 -13.964957 7 8 6
-0.878079 0.639619 -13.964957 13 14 12
-0.885139 0.639321 -13.958437 14 15 13
-0.892608 0.639321 -13.958437 12 13 9
-0.900078 0.639321 -13.958437 15 14 10
-0.907548 0.639321 -13.958437 12 11 7
-0.915017 0.639321 -13.958437 14 13 9
-0.922487 0.639321 -13.958437 16 15 11
-0.930391 0.639619 -13.964957 11 12 8
-0.937426 0.639321 -13.958437 14 15 13
-0.944896 0.639321 -13.958437 14 15 11
-0.952365 0.639321 -13.958437 12 13 11
-0.959835 0.639321 -13.958437 10 13 11
-0.967305 0.639321 -13.958437 10 13 11
-0.975230 0.639619 -13.964957 14 17 15
-0.990639 0.639918 -13.971482 8 13 11
-0.997649 0.639619 -13.964957 9 14 12
-1.004653 0.639321 -13.958437 8 13 11
-1.012123 0.639321 -13.958437 10 13 11
-1.019117 0.639022 -13.951923 11 14 12
-1.026104 0.638724 -13.945416 12 15 13
-1.032603 0.638129 -13.932420 13 16 14
-1.040059 0.638129 -13.932420 14 17 15
-1.047515 0.638129 -13.932420 14 17 15
-1.054971 0.638129 -13.932420 15 18 16
-1.062426 0.638129 -13.932420 15 18 16
-1.070381 0.638426 -13.938915 14 17 15
0.198108 0.515590 -11.390085 186 5 9
0.191940 0.515394 -11.385747 186 5 9
0.185847 0.515394 -11.385747 185 4 8
0.179754 0.515394 -11.385747 185 4 8
0.173727 0.515590 -11.390085 187 6 10
0.167888 0.516377 -11.407468 187 6 10
0.161968 0.516969 -11.420540 188 7 11
0.155857 0.516969 -11.420540 190 9 13
0.149745 0.516969 -11.420540 192 11 16
0.143634 0.516969 -11.420540 187 6 11
0.137575 0.517166 -11.424904 186 5 9
0.131461 0.517166 -11.424904 187 8 11
0.125299 0.516969 -11.420540 193 16 19
0.119188 0.516969 -11.420540 197 20 23
0.113076 0.516969 -11.420540 188 13 17
0.106965 0.516969 -11.420540 181 6 10
0.100853 0.516969 -11.420540 181 4 7
0.094741 0.516969 -11.420540 184 7 10
0.088596 0.516771 -11.416179 181 9 9
0.082487 0.516771 -11.416179 172 9 10
0.076378 0.516771 -11.416179 156 7 10
0.070295 0.516969 -11.420540 121 9 9
0.064159 0.516771 -11.416179 72 15 14
0.058050 0.516771 -11.416179 41 19 14
0.051921 0.516574 -11.411821 30 21 17
0.045762 0.515983 -11.398769 21 21 15
-0.847790 0.631851 -13.958437 5 6 4
-0.853268 0.630379 -13.925930 4 5 3
-0.863133 0.632146 -13.964957 6 7 5
-0.870606 0.632146 -13.964957 2 3 1
-0.877669 0.631851 -13.958437 5 6 4
-0.885139 0.631851 -13.958437 9 7 6
-0.892608 0.631851 -13.958437 8 5 1
-0.899658 0.631556 -13.951923 5 2 0
-0.907548 0.631851 -13.958437 13 9 4
-0.915017 0.631851 -13.958437 11 7 2
-0.922487 0.631851 -13.958437 11 7 2
-0.930391 0.632146 -13.964957 9 6 1
-0.937426 0.631851 -13.958437 11 7 2
-0.944896 0.631851 -13.958437 10 7 2
-0.952365 0.631851 -13.958437 7 4 0
-0.959835 0.631851 -13.958437 12 11 7
-0.967305 0.631851 -13.958437 15 14 10
-0.975230 0.632146 -13.964957 10 11 9
-0.983622 0.632737 -13.978014 4 7 5
-0.990639 0.632441 -13.971482 4 7 5
-0.997649 0.632146 -13.964957 3 6 4
-1.004653 0.631851 -13.958437 6 9 7
-1.012123 0.631851 -13.958437 5 8 6
-1.019117 0.631556 -13.951923 6 9 7
-1.026104 0.631261 -13.945416 8 11 9
-1.032603 0.630673 -13.932420 8 11 9
-1.040059 0.630673 -13.932420 8 11 9
-1.047515 0.630673 -13.932420 8 11 9
-1.054971 0.630673 -13.932420 9 12 10
-1.062426 0.630673 -13.932420 10 13 11
-1.070381 0.630967 -13.938915 9 12 10
-1.078846 0.631556 -13.951923 14 17 15
0.198032 0.509301 -11.385747 189 8 12
0.191866 0.509107 -11.381413 186 5 9
0.185776 0.509107 -11.381413 185 5 6
0.179685 0.509107 -11.381413 187 7 8
0.173661 0.509301 -11.385747 188 8 9
0.167760 0.509884 -11.398769 185 5 6
0.155857 0.510857 -11.420540 190 9 13
0.149745 0.510857 -11.420540 190 9 14
0.143634 0.510857 -11.420540 187 6 11
0.131411 0.510857 -11.420540 189 9 14
0.125299 0.510857 -11.420540 192 14 19
0.119188 0.510857 -11.420540 194 19 23
0.113076 0.510857 -11.420540 188 12 19
0.106965 0.510857 -11.420540 183 8 12
0.100853 0.510857 -11.420540 182 5 8
0.094705 0.510662 -11.416179 182 7 10
0.088562 0.510467 -11.411821 181 9 9
0.082455 0.510467 -11.411821 171 8 9
0.076378 0.510662 -11.416179 155 6 9
0.070269 0.510662 -11.416179 120 8 8
0.064159 0.510662 -11.416179 70 13 12
0.058050 0.510662 -11.416179 40 18 13
0.051901 0.510273 -11.407468 29 20 16
-0.825767 0.624673 -13.964957 7 8 6
-0.833240 0.624673 -13.964957 8 6 6
-0.840713 0.624673 -13.964957 6 4 4
-0.847790 0.624381 -13.958437 4 2 2
-0.853268 0.622927 -13.925930 7 5 5
-0.862730 0.624381 -13.958437 12 10 10
-0.870606 0.624673 -13.964957 10 8 8
-0.877669 0.624381 -13.958437 3 3 3
-0.885139 0.624381 -13.958437 13 11 10
-0.892192 0.624090 -13.951923 26 20 15
-0.899658 0.624090 -13.951923 28 20 13
-0.907124 0.624090 -13.951923 25 17 10
-0.915017 0.624381 -13.958437 22 14 7
-0.922487 0.624381 -13.958437 20 12 5
-0.929956 0.624381 -13.958437 23 15 8
-0.937426 0.624381 -13.958437 23 14 5
-0.944896 0.624381 -13.958437 16 9 0
-0.952365 0.624381 -13.958437 16 8 1
-0.959835 0.624381 -13.958437 17 11 4
-0.967305 0.624381 -13.958437 11 7 2
-0.974774 0.624381 -13.958437 6 3 0
-0.983622 0.625257 -13.978014 6 4 3
-0.990176 0.624673 -13.964957 3 4 2
-0.997183 0.624381 -13.958437 7 7 7
-1.004184 0.624090 -13.951923 2 2 2
-1.012123 0.624381 -13.958437 4 4 4
-1.018641 0.623799 -13.945416 5 5 5
-1.025626 0.623508 -13.938915 6 6 6
-1.032122 0.622927 -13.925930 6 6 6
-1.039575 0.622927 -13.925930 5 5 5
-1.047027 0.622927 -13.925930 5 5 5
-1.053988 0.622637 -13.919447 4 6 6
-1.061437 0.622637 -13.919447 5 7 7
-1.069384 0.622927 -13.925930 6 9 7
-1.077338 0.623217 -13.932420 9 12 10
0.204203 0.503400 -11.390085 183 2 6
0.198032 0.503208 -11.385747 182 1 5
0.191866 0.503017 -11.381413 183 2 6
0.185776 0.503017 -11.381413 185 5 6
0.179685 0.503017 -11.381413 187 7 8
0.173595 0.503017 -11.381413 187 7 8
0.167696 0.503592 -11.394425 183 3 4
0.161845 0.504360 -11.411821 184 4 5
0.155797 0.504553 -11.416179 191 10 14
0.149688 0.504553 -11.416179 186 5 10
0.143579 0.504553 -11.416179 187 5 13
0.137522 0.504746 -11.420540 190 9 14
0.131411 0.504746 -11.420540 191 11 16
0.125251 0.504553 -11.416179 193 15 20
0.119142 0.504553 -11.416179 194 19 23
0.113033 0.504553 -11.416179 189 13 20
0.106924 0.504553 -11.416179 184 9 13
0.100815 0.504553 -11.416179 186 8 13
0.094705 0.504553 -11.416179 182 7 10
0.088562 0.504360 -11.411821 179 7 7
0.082455 0.504360 -11.411821 169 6 7
0.076349 0.504360 -11.411821 154 5 8
0.070269 0.504553 -11.416179 119 7 7
0.064135 0.504360 -11.411821 71 12 10
0.058028 0.504360 -11.411821 37 15 10
0.051901 0.504168 -11.407468 31 20 16
-0.826153 0.617488 -13.971482 4 5 3
-0.833240 0.617200 -13.964957 6 4 4
-0.840713 0.617200 -13.964957 7 5 5
-0.847790 0.616912 -13.958437 5 3 3
-0.853268 0.615475 -13.925930 6 4 4
-0.863133 0.617200 -13.964957 8 6 6
-0.870606 0.617200 -13.964957 9 7 7
-0.877669 0.616912 -13.958437 4 4 4
-0.885139 0.616912 -13.958437 37 33 32
-0.892192 0.616624 -13.951923 83 74 70
-0.899658 0.616624 -13.951923 67 56 48
-0.907548 0.616912 -13.958437 66 55 47
-0.915017 0.616912 -13.958437 74 64 54
-0.922487 0.616912 -13.958437 71 59 49
-0.930391 0.617200 -13.964957 64 52 42
-0.937426 0.616912 -13.958437 60 48 38
-0.944896 0.616912 -13.958437 65 53 43
-0.952365 0.616912 -13.958437 64 52 42
-0.959835 0.616912 -13.958437 53 42 34
-0.967305 0.616912 -13.958437 53 43 36
-0.974774 0.616912 -13.958437 45 39 34
-0.983622 0.617777 -13.978014 21 16 13
-0.990176 0.617200 -13.964957 8 4 3
-0.997183 0.616912 -13.958437 11 9 9
-1.004184 0.616624 -13.951923 3 3 3
-1.011650 0.616624 -13.951923 5 5 5
-1.018641 0.616336 -13.945416 6 6 6
-1.025626 0.616049 -13.938915 6 6 6
-1.032122 0.615475 -13.925930 6 6 6
-1.039091 0.615188 -13.919447 5 5 5
-1.046539 0.615188 -13.919447 5 5 5
-1.053988 0.615188 -13.919447 3 5 5
-1.060943 0.614902 -13.912970 3 5 5
-1.068886 0.615188 -13.919447 3 6 4
-1.076335 0.615188 -13.919447 3 6 4
-1.090217 0.614616 -13.906499 15 18 16
0.216641 0.497874 -11.403117 185 4 8
0.210379 0.497494 -11.394425 185 4 8
0.204125 0.497115 -11.385747 184 3 7
0.197957 0.496926 -11.381413 184 4 5
0.191866 0.496926 -11.381413 187 7 8
0.185705 0.496737 -11.377083 188 8 9
0.179617 0.496737 -11.377083 187 7 8
0.173595 0.496926 -11.381413 186 6 7
0.167696 0.497494 -11.394425 185 5 6
0.161845 0.498254 -11.411821 185 5 6
0.155797 0.498444 -11.416179 189 8 12
0.149688 0.498444 -11.416179 189 5 13
0.143579 0.498444 -11.416179 188 4 12
0.137470 0.498444 -11.416179 188 7 12
0.131361 0.498444 -11.416179 189 9 14
0.125251 0.498444 -11.416179 193 15 20
0.119142 0.498444 -11.416179 195 20 24
0.113033 0.498444 -11.416179 189 13 20
0.106924 0.498444 -11.416179 183 8 12
0.100815 0.498444 -11.416179 188 10 15
0.094669 0.498254 -11.411821 182 7 10
0.088528 0.498064 -11.407468 178 6 6
0.082424 0.498064 -11.407468 170 7 8
0.076349 0.498254 -11.411821 155 6 9
0.070242 0.498254 -11.411821 120 8 8
0.064135 0.498254 -11.411821 71 12 10
0.058006 0.498064 -11.407468 39 17 12
0.051881 0.497874 -11.403117 32 21 17
-0.826153 0.610011 -13.971482 2 0 0
-0.833240 0.609727 -13.964957 7 5 5
-0.840713 0.609727 -13.964957 10 8 8
-0.847790 0.609442 -13.958437 7 5 5
-0.853268 0.608023 -13.925930 7 5 5
-0.863133 0.609727 -13.964957 4 2 2
-0.870606 0.609727 -13.964957 9 7 7
-0.878079 0.609727 -13.964957 5 3 3
-0.885139 0.609442 -13.958437 56 51 50
-0.892608 0.609442 -13.958437 91 79 73
-0.899658 0.609158 -13.951923 97 82 73
-0.907548 0.609442 -13.958437 130 113 104
-0.915017 0.609442 -13.958437 117 101 89
-0.922487 0.609442 -13.958437 105 87 76
-0.930391 0.609727 -13.964957 112 94 83
-0.937426 0.609442 -13.958437 136 118 107
-0.944896 0.609442 -13.958437 83 67 55
-0.952365 0.609442 -13.958437 97 81 69
-0.959835 0.609442 -13.958437 136 121 112
-0.967305 0.609442 -13.958437 107 94 86
-0.974774 0.609442 -13.958437 91 81 74
-0.983622 0.610297 -13.978014 50 41 38
-0.990176 0.609727 -13.964957 7 2 1
-0.996718 0.609158 -13.951923 11 6 7
-1.004184 0.609158 -13.951923 7 5 5
-1.011650 0.609158 -13.951923 9 6 8
-1.018641 0.608873 -13.945416 9 6 8
-1.025626 0.608590 -13.938915 8 6 6
-1.032122 0.608023 -13.925930 9 7 7
-1.039091 0.607740 -13.919447 7 7 7
-1.046052 0.607457 -13.912970 6 6 6
-1.053498 0.607457 -13.912970 6 6 6
-1.060943 0.607457 -13.912970 5 5 5
-1.068388 0.607457 -13.912970 3 5 5
-1.076335 0.607740 -13.919447 2 4 4
-1.085805 0.608873 -13.945416 6 8 8
-1.090217 0.607174 -13.906499 12 14 14
0.521490 0.485842 -11.265627 126 2 2
0.216641 0.491771 -11.403117 187 6 10
0.210298 0.491209 -11.390085 186 5 9
0.204125 0.491022 -11.385747 186 5 9
0.197957 0.490835 -11.381413 185 5 6
0.191866 0.490835 -11.381413 188 8 9
0.185776 0.490835 -11.381413 186 6 7
0.179685 0.490835 -11.381413 183 3 4
0.173661 0.491022 -11.385747 184 4 5
0.167760 0.491584 -11.398769 187 7 8
0.161845 0.492147 -11.411821 187 7 8
0.155797 0.492335 -11.416179 187 6 10
0.149688 0.492335 -11.416179 191 7 15
0.143579 0.492335 -11.416179 190 6 14
0.137470 0.492335 -11.416179 188 7 12
0.131361 0.492335 -11.416179 187 8 11
0.125251 0.492335 -11.416179 191 13 18
0.119142 0.492335 -11.416179 194 19 23
0.113033 0.492335 -11.416179 190 15 19
0.106924 0.492335 -11.416179 185 10 14
0.100815 0.492335 -11.416179 187 10 13
0.094669 0.492147 -11.411821 182 8 8
0.088528 0.491959 -11.407468 180 8 8
0.082455 0.492147 -11.411821 172 10 8
0.076349 0.492147 -11.411821 155 6 9
0.070242 0.492147 -11.411821 121 7 7
0.064135 0.492147 -11.411821 73 15 10
0.058006 0.491959 -11.407468 46 22 16
0.051881 0.491771 -11.403117 31 20 16
-0.819059 0.602817 -13.978014 8 8 8
-0.826153 0.602535 -13.971482 2 2 2
-0.833240 0.602253 -13.964957 5 3 3
-0.840713 0.602253 -13.964957 8 6 6
-0.847790 0.601972 -13.958437 4 2 2
-0.853268 0.600570 -13.925930 8 6 6
-0.863133 0.602253 -13.964957 7 5 5
-0.870606 0.602253 -13.964957 13 11 11
-0.877669 0.601972 -13.958437 2 0 0
-0.885139 0.601972 -13.958437 53 48 45
-0.892192 0.601691 -13.951923 56 45 37
-0.899658 0.601691 -13.951923 96 79 70
-0.907124 0.601691 -13.951923 122 104 93
-0.914590 0.601691 -13.951923 127 109 98
-0.922487 0.601972 -13.958437 106 89 76
-0.929956 0.601972 -13.958437 83 66 53
-0.937426 0.601972 -13.958437 192 173 160
-0.944896 0.601972 -13.958437 70 51 38
-0.952365 0.601972 -13.958437 75 56 43
-0.959387 0.601691 -13.951923 189 172 159
-0.967305 0.601972 -13.958437 82 68 56
-0.974774 0.601972 -13.958437 58 47 39
-0.983162 0.602535 -13.971482 57 48 44
-0.990176 0.602253 -13.964957 5 0 0
-0.996718 0.601691 -13.951923 16 11 12
-1.003716 0.601411 -13.945416 4 1 3
-1.011650 0.601691 -13.951923 8 5 7
-1.018166 0.601130 -13.938915 6 5 7
-1.025148 0.600850 -13.932420 7 5 5
-1.031642 0.600291 -13.919447 5 5 5
-1.039091 0.600291 -13.919447 6 6 6
-1.046052 0.600011 -13.912970 6 6 6
-1.053988 0.600291 -13.919447 5 5 5
-1.061437 0.600291 -13.919447 4 4 4
-1.068886 0.600291 -13.919447 3 5 5
-1.076335 0.600291 -13.919447 4 6 6
-1.085805 0.601411 -13.945416 3 5 5
-1.090217 0.599732 -13.906499 1 3 3
0.527916 0.480175 -11.274122 125 1 1
0.521883 0.480175 -11.274122 127 0 1
0.515267 0.479633 -11.261383 128 1 2
0.204125 0.484929 -11.385747 187 8 9
0.197957 0.484745 -11.381413 188 8 9
0.191793 0.484560 -11.377083 184 4 5
0.185705 0.484560 -11.377083 186 4 5
0.179617 0.484560 -11.377083 188 6 7
0.173595 0.484745 -11.381413 187 5 6
0.167696 0.485299 -11.394425 188 6 7
0.161845 0.486040 -11.411821 191 9 10
0.155797 0.486225 -11.416179 191 8 12
0.149688 0.486225 -11.416179 188 7 12
