ply
format ascii 1.0
element vertex 1254
property float x
property float y
property float z
property uchar red
property uchar green
property uchar blue
end_header
2.263900 1.431116 -26.872911 19 18 14
2.254498 1.432096 -26.891304 18 19 15
2.243547 1.432096 -26.891304 19 17 16
2.235656 1.434059 -26.928167 24 23 19
2.059328 1.381963 -25.949930 25 25 19
2.046057 1.380140 -25.915695 20 20 14
2.019620 1.376508 -25.847496 21 21 15
2.013067 1.379230 -25.898613 20 19 15
2.851056 2.061371 -38.707581 32 12 11
2.843698 2.067482 -38.822327 35 11 11
2.827888 2.067482 -38.822327 37 9 9
2.817646 2.071576 -38.899204 40 10 9
2.807363 2.075686 -38.976383 41 7 7
2.805406 2.086034 -39.170685 47 9 7
2.792238 2.088116 -39.209774 51 7 6
2.784607 2.094386 -39.327522 58 10 9
2.776930 2.100695 -39.445980 58 8 8
2.760866 2.100695 -39.445980 63 9 8
2.739301 2.096485 -39.366928 68 11 10
2.723269 2.096485 -39.366928 68 9 7
2.707237 2.096485 -39.366928 71 7 6
2.691205 2.096485 -39.366928 75 11 7
2.672495 2.094386 -39.327522 79 12 9
2.656479 2.094386 -39.327522 85 19 14
2.640463 2.094386 -39.327522 87 23 18
2.624447 2.094386 -39.327522 82 18 13
2.608431 2.094386 -39.327522 72 10 4
2.592415 2.094386 -39.327522 74 12 6
2.573822 2.092292 -39.288197 69 6 2
2.560383 2.094386 -39.327522 68 5 1
2.541822 2.092292 -39.288197 72 6 7
2.525822 2.092292 -39.288197 75 5 6
2.512335 2.094386 -39.327522 78 4 8
2.493822 2.092292 -39.288197 78 5 7
2.480303 2.094386 -39.327522 79 5 5
2.461822 2.092292 -39.288197 82 7 5
2.443379 2.090202 -39.248947 88 10 11
2.424972 2.088116 -39.209774 87 11 12
2.409004 2.088116 -39.209774 84 12 12
2.397822 2.092292 -39.288197 74 12 12
2.384207 2.094386 -39.327522 62 14 13
2.320143 2.094386 -39.327522 23 20 15
2.306435 2.096485 -39.366928 18 20 14
2.817953 1.320796 -24.992491 156 79 77
2.809562 1.321637 -25.008400 159 82 79
2.806524 1.325011 -25.072237 159 82 79
2.796313 1.325011 -25.072237 156 78 72
2.784325 1.324166 -25.056248 154 73 68
2.775892 1.325011 -25.072237 155 74 67
2.767447 1.325857 -25.088247 154 70 64
2.755471 1.325011 -25.072237 146 62 56
2.745260 1.325011 -25.072237 147 61 55
2.735049 1.325011 -25.072237 145 57 51
2.728321 1.326704 -25.104279 150 59 54
2.716362 1.325857 -25.088247 143 51 46
2.713074 1.329252 -25.152494 149 57 52
2.704563 1.330104 -25.168608 149 56 53
2.665271 1.330956 -25.184740 143 58 56
2.656717 1.331810 -25.200895 135 54 51
2.644758 1.330956 -25.184740 141 61 60
2.634501 1.330956 -25.184740 144 67 65
2.627614 1.332665 -25.217070 141 65 66
2.615665 1.331810 -25.200895 137 59 60
2.607075 1.332665 -25.217070 133 55 56
2.595139 1.331810 -25.200895 141 61 62
2.584876 1.331810 -25.200895 145 72 74
2.572963 1.330956 -25.184740 150 95 98
2.564350 1.331810 -25.200895 164 121 124
2.568918 1.339543 -25.347223 176 137 139
2.565215 1.343009 -25.412804 179 140 142
2.549464 1.345620 -25.462214 138 96 97
2.539094 1.345620 -25.462214 131 81 81
2.528725 1.345620 -25.462214 130 73 74
2.518355 1.345620 -25.462214 137 74 76
2.507986 1.345620 -25.462214 138 73 75
2.497617 1.345620 -25.462214 137 73 73
2.487247 1.345620 -25.462214 136 72 72
2.480092 1.347367 -25.495260 135 73 73
2.471313 1.348242 -25.511816 137 75 75
2.457732 1.346493 -25.478725 136 74 74
2.447356 1.346493 -25.478725 131 69 69
2.513262 1.425046 -26.965130 122 73 71
2.498850 1.423092 -26.928167 113 64 62
2.486180 1.422118 -26.909723 113 64 62
2.473526 1.421144 -26.891304 104 56 55
2.462575 1.421144 -26.891304 100 52 51
2.449947 1.420172 -26.872911 100 52 51
2.439003 1.420172 -26.872911 91 45 44
2.428059 1.420172 -26.872911 87 42 39
2.417115 1.420172 -26.872911 85 42 39
2.406171 1.420172 -26.872911 76 35 32
2.396867 1.421144 -26.891304 77 38 36
2.385915 1.421144 -26.891304 87 52 49
2.373339 1.420172 -26.872911 114 85 81
2.362396 1.420172 -26.872911 172 148 142
2.351452 1.420172 -26.872911 203 181 175
2.340508 1.420172 -26.872911 193 172 164
2.329564 1.420172 -26.872911 148 127 119
2.317035 1.419202 -26.854542 109 88 80
2.304523 1.418232 -26.836199 75 54 46
2.293594 1.418232 -26.836199 51 33 26
2.282665 1.418232 -26.836199 41 29 23
2.273289 1.419202 -26.854542 35 27 20
2.262353 1.419202 -26.854542 35 28 25
2.057968 1.370490 -25.932802 25 22 17
2.044708 1.368683 -25.898613 23 20 15
2.027478 1.364187 -25.813532 23 20 15
2.016966 1.364187 -25.813532 23 20 15
2.013067 1.368683 -25.898613 22 19 14
1.999883 1.366881 -25.864513 23 20 15
2.840891 2.049647 -38.784004 45 15 14
2.822310 2.047625 -38.745754 44 10 10
2.809301 2.049647 -38.784004 49 11 11
2.796267 2.051672 -38.822327 50 8 9
2.794262 2.061859 -39.015091 56 10 9
2.786675 2.068020 -39.131668 60 8 8
2.771365 2.080453 -39.366928 68 11 10
2.755333 2.080453 -39.366928 69 10 8
2.736559 2.078370 -39.327522 70 9 7
2.720543 2.078370 -39.327522 72 8 7
2.704527 2.078370 -39.327522 76 9 8
2.688511 2.078370 -39.327522 83 12 9
2.672495 2.078370 -39.327522 86 12 10
2.653822 2.076292 -39.288197 95 21 17
2.640463 2.078370 -39.327522 104 30 26
2.624447 2.078370 -39.327522 100 28 21
2.605822 2.076292 -39.288197 86 15 11
2.589822 2.076292 -39.288197 82 14 9
2.573822 2.076292 -39.288197 75 8 5
2.560383 2.078370 -39.327522 71 7 3
2.541822 2.076292 -39.288197 70 6 6
2.525822 2.076292 -39.288197 67 3 3
2.512335 2.078370 -39.327522 69 2 5
2.493822 2.076292 -39.288197 66 1 3
2.480303 2.078370 -39.327522 64 2 2
2.464287 2.078370 -39.327522 68 4 3
2.445822 2.076292 -39.288197 74 6 7
2.427395 2.074218 -39.248947 76 8 9
2.411411 2.074218 -39.248947 74 8 9
2.400223 2.078370 -39.327522 67 10 9
2.384207 2.078370 -39.327522 57 11 10
2.804734 1.313962 -25.056248 174 74 72
2.796313 1.314800 -25.072237 167 68 64
2.784325 1.313962 -25.056248 165 62 59
2.775892 1.314800 -25.072237 163 61 56
2.767447 1.315640 -25.088247 166 59 55
2.755471 1.314800 -25.072237 158 51 47
2.745260 1.314800 -25.072237 160 52 48
2.735049 1.314800 -25.072237 159 49 45
2.728321 1.316481 -25.104279 160 45 42
2.716362 1.315640 -25.088247 155 38 35
2.713074 1.319009 -25.152494 167 49 48
2.685783 1.320700 -25.184740 166 53 51
2.675527 1.320700 -25.184740 165 56 54
2.668692 1.322395 -25.217070 166 61 58
2.658422 1.322395 -25.217070 168 67 65
2.644758 1.320700 -25.184740 166 69 66
2.636191 1.321547 -25.200895 166 70 70
2.627614 1.322395 -25.217070 170 74 74
2.617344 1.322395 -25.217070 175 78 80
2.608749 1.323245 -25.233267 177 80 82
2.596805 1.322395 -25.217070 181 82 84
2.584876 1.321547 -25.200895 179 88 91
2.572963 1.320700 -25.184740 175 104 107
2.565996 1.322395 -25.217070 196 135 139
2.570576 1.330079 -25.363586 212 155 158
2.565215 1.332660 -25.412804 220 163 166
2.558175 1.334386 -25.445723 209 151 152
2.549464 1.335251 -25.462214 189 124 126
2.539094 1.335251 -25.462214 179 108 111
2.528725 1.335251 -25.462214 175 98 101
2.518355 1.335251 -25.462214 176 95 98
2.509612 1.336117 -25.478725 178 93 97
2.499236 1.336117 -25.478725 176 91 95
2.487247 1.335251 -25.462214 177 90 94
2.478484 1.336117 -25.478725 175 88 92
2.469709 1.336984 -25.495260 174 87 91
2.457732 1.336117 -25.478725 175 85 90
2.447356 1.336117 -25.478725 174 84 89
2.498850 1.412126 -26.928167 164 89 87
2.486180 1.411159 -26.909723 163 87 88
2.473526 1.410193 -26.891304 172 96 97
2.462575 1.410193 -26.891304 168 91 94
2.449947 1.409228 -26.872911 157 83 83
2.440672 1.410193 -26.891304 152 78 78
2.428059 1.409228 -26.872911 149 75 73
2.417115 1.409228 -26.872911 146 75 72
2.406171 1.409228 -26.872911 141 72 69
2.396867 1.410193 -26.891304 140 75 74
2.385915 1.410193 -26.891304 142 83 81
2.374964 1.410193 -26.891304 162 107 104
2.362396 1.409228 -26.872911 195 147 141
2.351452 1.409228 -26.872911 207 161 154
2.342110 1.410193 -26.891304 176 132 125
2.331158 1.410193 -26.891304 144 100 93
2.317035 1.408265 -26.854542 131 89 82
2.304523 1.407303 -26.836199 110 71 63
2.293594 1.407303 -26.836199 102 66 60
2.282665 1.407303 -26.836199 91 59 53
2.273289 1.408265 -26.854542 82 53 48
2.094682 1.356348 -25.864513 37 21 15
2.068530 1.359929 -25.932802 36 26 19
2.053901 1.357241 -25.881552 33 23 16
2.040673 1.355455 -25.847496 31 23 16
2.024818 1.351898 -25.779655 31 23 16
2.012998 1.351011 -25.762751 27 21 14
2.010416 1.356348 -25.864513 25 19 12
1.997253 1.354564 -25.830503 25 21 16
1.990660 1.357241 -25.881552 26 22 17
2.861182 2.025852 -38.631462 32 9 7
2.845450 2.025852 -38.631462 42 12 11
2.819529 2.029844 -38.707581 48 8 9
2.803766 2.029844 -38.707581 55 11 10
2.783207 2.037875 -38.860729 64 10 9
2.778374 2.045970 -39.015091 67 10 9
2.773502 2.054130 -39.170685 79 15 14
2.765822 2.060292 -39.288197 78 13 12
2.749822 2.060292 -39.288197 78 11 8
2.733822 2.060292 -39.288197 76 9 8
2.717822 2.060292 -39.288197 79 10 7
2.701822 2.060292 -39.288197 85 10 8
2.685822 2.060292 -39.288197 89 9 8
2.669822 2.060292 -39.288197 90 7 5
2.651171 2.058234 -39.248947 97 14 12
2.637822 2.060292 -39.288197 109 27 22
2.621822 2.060292 -39.288197 105 24 19
2.605822 2.060292 -39.288197 95 18 15
2.589822 2.060292 -39.288197 89 15 11
2.573822 2.060292 -39.288197 84 10 8
2.560383 2.062354 -39.327522 82 11 8
2.541822 2.060292 -39.288197 74 7 6
2.528351 2.062354 -39.327522 67 3 3
2.512335 2.062354 -39.327522 66 4 4
2.496319 2.062354 -39.327522 62 5 4
2.482788 2.064421 -39.366928 59 5 4
2.466756 2.064421 -39.366928 57 6 4
2.448271 2.062354 -39.327522 59 5 4
2.427395 2.058234 -39.248947 59 5 4
2.413822 2.060292 -39.288197 58 7 5
2.402627 2.064421 -39.366928 54 8 7
2.386595 2.064421 -39.366928 50 12 10
2.806524 1.304590 -25.072237 179 63 62
2.798099 1.305423 -25.088247 171 56 53
2.786102 1.304590 -25.072237 166 47 45
2.777664 1.305423 -25.088247 166 48 43
2.769216 1.306257 -25.104279 167 44 40
2.757230 1.305423 -25.088247 161 38 34
2.748768 1.306257 -25.104279 165 40 36
2.736796 1.305423 -25.088247 171 45 41
2.730065 1.307092 -25.120329 173 41 41
2.718097 1.306257 -25.104279 170 35 37
2.706296 1.310444 -25.184740 172 42 42
2.697769 1.311284 -25.200895 173 46 45
2.689231 1.312126 -25.217070 173 50 48
2.678962 1.312126 -25.217070 177 58 56
2.670406 1.312968 -25.233267 181 66 63
2.660130 1.312968 -25.233267 180 67 64
2.646454 1.311284 -25.200895 176 68 64
2.636191 1.311284 -25.200895 180 73 70
2.627614 1.312126 -25.217070 188 83 80
2.617344 1.312126 -25.217070 192 89 87
2.607075 1.312126 -25.217070 196 92 93
2.595139 1.311284 -25.200895 201 97 98
2.584876 1.311284 -25.200895 199 100 102
2.562706 1.310444 -25.184740 199 119 124
2.565607 1.317198 -25.314558 211 132 135
2.563557 1.321456 -25.396378 224 145 148
2.549464 1.324881 -25.462214 203 120 122
2.539094 1.324881 -25.462214 201 117 119
2.528725 1.324881 -25.462214 203 116 119
2.519989 1.325741 -25.478725 205 114 117
2.509612 1.325741 -25.478725 198 104 108
2.499236 1.325741 -25.478725 192 97 101
2.487247 1.324881 -25.462214 197 100 104
2.478484 1.325741 -25.478725 198 95 102
2.469709 1.326601 -25.495260 191 85 92
2.457732 1.325741 -25.478725 188 79 87
2.447356 1.325741 -25.478725 189 81 87
2.498850 1.401160 -26.928167 185 87 87
2.486180 1.400200 -26.909723 182 84 84
2.473526 1.399242 -26.891304 184 84 84
2.460891 1.398285 -26.872911 184 84 84
2.449947 1.398285 -26.872911 185 83 84
2.440672 1.399242 -26.891304 182 80 81
2.429721 1.399242 -26.891304 181 78 76
2.417115 1.398285 -26.872911 179 76 74
2.407818 1.399242 -26.891304 177 77 73
2.398508 1.400200 -26.909723 178 79 75
2.385915 1.399242 -26.891304 184 87 83
2.374964 1.399242 -26.891304 187 95 90
2.362396 1.398285 -26.872911 193 102 98
2.351452 1.398285 -26.872911 196 107 103
2.342110 1.399242 -26.891304 189 102 98
2.331158 1.399242 -26.891304 176 94 89
2.318620 1.398285 -26.872911 169 90 87
2.304523 1.396374 -26.836199 169 92 89
2.293594 1.396374 -26.836199 162 91 87
2.282665 1.396374 -26.836199 158 92 87
2.117142 1.346701 -25.881552 105 56 48
2.103830 1.344929 -25.847496 92 46 39
2.089181 1.342280 -25.796583 81 39 34
2.084149 1.345814 -25.864513 71 33 28
2.076349 1.347589 -25.898613 66 34 29
2.064441 1.346701 -25.881552 60 31 26
2.049850 1.344045 -25.830503 53 29 23
2.037991 1.343162 -25.813532 44 22 16
2.023490 1.340519 -25.762751 45 27 20
2.011679 1.339641 -25.745869 37 21 14
2.007773 1.344045 -25.830503 33 22 14
1.995941 1.343162 -25.813532 30 22 15
1.990660 1.346701 -25.881552 25 19 12
2.839865 2.006175 -38.555637 41 7 8
2.813985 2.010120 -38.631462 54 7 9
2.798252 2.010120 -38.631462 57 7 7
2.780457 2.020051 -38.822327 67 9 4
2.772866 2.026057 -38.937756 74 10 6
2.770739 2.036147 -39.131668 79 10 7
2.763059 2.042250 -39.248947 84 9 7
2.747075 2.042250 -39.248947 86 9 6
2.733822 2.044292 -39.288197 87 12 10
2.717822 2.044292 -39.288197 94 15 12
2.701822 2.044292 -39.288197 100 15 13
2.685822 2.044292 -39.288197 103 11 10
2.669822 2.044292 -39.288197 100 7 6
2.651171 2.042250 -39.248947 101 8 7
2.637822 2.044292 -39.288197 103 14 10
2.621822 2.044292 -39.288197 106 19 15
2.605822 2.044292 -39.288197 97 12 10
2.589822 2.044292 -39.288197 99 16 14
2.573822 2.044292 -39.288197 99 16 14
2.557822 2.044292 -39.288197 94 14 13
2.541822 2.044292 -39.288197 88 13 11
2.528351 2.046338 -39.327522 75 8 7
2.514852 2.048389 -39.366928 65 4 2
2.496319 2.046338 -39.327522 56 5 3
2.482788 2.048389 -39.366928 47 4 1
2.466756 2.048389 -39.366928 44 6 4
2.448271 2.046338 -39.327522 42 7 4
2.427395 2.042250 -39.248947 40 7 4
2.413822 2.044292 -39.288197 38 7 4
2.400223 2.046338 -39.327522 38 10 9
2.806524 1.294379 -25.072237 166 36 36
2.798099 1.295206 -25.088247 165 35 35
2.787881 1.295206 -25.088247 160 29 26
2.777664 1.295206 -25.088247 159 26 23
2.767447 1.295206 -25.088247 160 25 23
2.757230 1.295206 -25.088247 163 28 26
2.748768 1.296033 -25.104279 167 31 27
2.736796 1.295206 -25.088247 166 26 25
2.730065 1.296862 -25.120329 169 24 26
2.719835 1.296862 -25.120329 175 29 33
2.708032 1.301021 -25.200895 176 36 37
2.701235 1.302692 -25.233267 174 37 35
2.694419 1.304368 -25.265720 177 44 41
2.684130 1.304368 -25.265720 181 50 47
2.675561 1.305207 -25.281979 177 51 47
2.661839 1.303530 -25.249483 174 49 45
2.648153 1.301856 -25.217070 173 50 46
2.639578 1.302692 -25.233267 179 58 56
2.632683 1.304368 -25.265720 187 68 66
2.620708 1.303530 -25.249483 192 74 73
2.610426 1.303530 -25.249483 194 75 76
2.596805 1.301856 -25.217070 197 77 81
2.586535 1.301856 -25.217070 195 80 83
2.572963 1.300187 -25.184740 186 78 84
2.565996 1.301856 -25.217070 193 90 95
2.572237 1.310266 -25.379971 197 91 97
2.566875 1.312810 -25.429253 200 95 98
2.549464 1.314512 -25.462214 204 99 102
2.539094 1.314512 -25.462214 205 101 102
2.528725 1.314512 -25.462214 201 97 98
2.518355 1.314512 -25.462214 195 91 92
2.507986 1.314512 -25.462214 198 91 93
2.497617 1.314512 -25.462214 198 89 91
2.487247 1.314512 -25.462214 199 86 89
2.478484 1.315364 -25.478725 200 82 87
2.469709 1.316218 -25.495260 200 78 84
2.457732 1.315364 -25.478725 200 76 82
2.447356 1.315364 -25.478725 199 73 78
2.497139 1.389241 -26.909723 199 79 80
2.484478 1.388290 -26.891304 197 77 78
2.473526 1.388290 -26.891304 191 71 72
2.460891 1.387341 -26.872911 190 67 69
2.449947 1.387341 -26.872911 195 71 71
2.439003 1.387341 -26.872911 198 71 72
2.428059 1.387341 -26.872911 195 68 67
2.415463 1.386392 -26.854542 193 63 63
2.406171 1.387341 -26.872911 190 63 62
2.396867 1.388290 -26.891304 194 68 64
2.385915 1.388290 -26.891304 190 65 61
2.374964 1.388290 -26.891304 193 67 66
2.360781 1.386392 -26.854542 195 72 70
2.349844 1.386392 -26.854542 192 70 70
2.342110 1.388290 -26.891304 194 74 74
2.331158 1.388290 -26.891304 193 76 77
2.317035 1.386392 -26.854542 186 74 74
2.304523 1.385445 -26.836199 188 82 81
2.293594 1.385445 -26.836199 186 85 83
2.281107 1.384500 -26.817881 191 94 91
2.112967 1.333525 -25.830503 155 75 68
2.099686 1.331774 -25.796583 146 68 61
2.086441 1.330028 -25.762751 139 65 61
2.080041 1.332649 -25.813532 133 62 58
2.073616 1.335281 -25.864513 125 58 55
2.063082 1.335281 -25.864513 121 60 56
2.047158 1.331774 -25.796583 105 49 44
2.036653 1.331774 -25.796583 95 43 37
2.022164 1.329156 -25.745869 86 40 33
2.011679 1.329156 -25.745869 77 35 28
2.007773 1.333525 -25.830503 63 27 21
1.997253 1.333525 -25.830503 53 24 17
1.991972 1.337041 -25.898613 43 17 11
2.831529 1.984630 -38.442463 40 6 7
2.824163 1.990473 -38.555637 46 6 8
2.808461 1.990473 -38.555637 54 7 9
2.792760 1.990473 -38.555637 58 8 8
2.767381 2.006223 -38.860729 73 10 6
2.765231 2.016195 -39.053871 78 9 6
2.760302 2.024244 -39.209774 81 7 5
2.747075 2.026266 -39.248947 83 6 4
2.731091 2.026266 -39.248947 89 9 8
2.717822 2.028292 -39.288197 93 10 8
2.701822 2.028292 -39.288197 103 10 11
2.685822 2.028292 -39.288197 106 10 10
2.669822 2.028292 -39.288197 109 11 11
2.653822 2.028292 -39.288197 111 13 13
2.637822 2.028292 -39.288197 109 16 15
2.621822 2.028292 -39.288197 109 18 14
2.605822 2.028292 -39.288197 108 18 17
2.589822 2.028292 -39.288197 106 16 15
2.573822 2.028292 -39.288197 101 11 10
2.560383 2.030322 -39.327522 97 10 8
2.541822 2.028292 -39.288197 92 10 9
2.528351 2.030322 -39.327522 84 10 8
2.514852 2.032357 -39.366928 73 9 8
2.498820 2.032357 -39.366928 63 10 7
2.485278 2.034395 -39.406414 48 7 4
2.469230 2.034395 -39.406414 40 7 4
2.450724 2.032357 -39.366928 36 7 3
2.429822 2.028292 -39.288197 29 7 2
2.413822 2.028292 -39.288197 28 9 6
2.400223 2.030322 -39.327522 27 12 9
2.808316 1.284989 -25.088247 157 17 18
2.799886 1.285810 -25.104279 158 15 17
2.787881 1.284989 -25.088247 157 14 16
2.777664 1.284989 -25.088247 162 17 19
2.767447 1.284989 -25.088247 160 16 15
2.757230 1.284989 -25.088247 156 10 10
2.747013 1.284989 -25.088247 161 13 13
2.736796 1.284989 -25.088247 164 16 16
2.728321 1.285810 -25.104279 171 20 23
2.719835 1.286632 -25.120329 171 22 26
2.709770 1.291587 -25.217070 168 22 24
2.709937 1.296580 -25.314558 165 21 20
2.699628 1.296580 -25.314558 169 25 24
2.692789 1.298253 -25.347223 173 31 30
2.684198 1.299091 -25.363586 174 34 33
2.665265 1.294911 -25.281979 169 29 28
2.649854 1.292416 -25.233267 167 30 28
2.644673 1.294911 -25.281979 172 34 35
2.642881 1.299091 -25.363586 178 40 41
2.627463 1.296580 -25.314558 179 43 45
2.617153 1.296580 -25.314558 180 44 46
2.600143 1.293247 -25.249483 184 47 51
2.588197 1.292416 -25.233267 186 48 55
2.576266 1.291587 -25.217070 183 49 55
2.569294 1.293247 -25.249483 192 58 64
2.573899 1.300771 -25.396378 189 55 61
2.549464 1.304143 -25.462214 182 53 56
2.539094 1.304143 -25.462214 186 58 59
2.528725 1.304143 -25.462214 187 60 61
2.518355 1.304143 -25.462214 186 60 59
2.507986 1.304143 -25.462214 188 62 61
2.497617 1.304143 -25.462214 190 63 62
2.485636 1.303298 -25.445723 192 62 62
2.478484 1.304988 -25.478725 195 63 63
2.469709 1.305835 -25.495260 200 64 65
2.457732 1.304988 -25.478725 198 60 61
2.447356 1.304988 -25.478725 195 55 56
2.498850 1.379227 -26.928167 193 54 57
2.486180 1.378282 -26.909723 203 61 66
2.473526 1.377339 -26.891304 201 59 64
2.460891 1.376397 -26.872911 202 59 62
2.449947 1.376397 -26.872911 204 58 62
2.439003 1.376397 -26.872911 203 56 60
2.429721 1.377339 -26.891304 201 55 57
2.417115 1.376397 -26.872911 204 55 58
2.406171 1.376397 -26.872911 207 59 59
2.398508 1.378282 -26.909723 208 60 60
2.387549 1.378282 -26.909723 196 50 50
2.374964 1.377339 -26.891304 200 54 54
2.362396 1.376397 -26.872911 202 58 57
2.351452 1.376397 -26.872911 195 50 52
2.332755 1.378282 -26.909723 202 63 66
2.318620 1.376397 -26.872911 193 58 60
2.304523 1.374516 -26.836199 187 54 56
2.293594 1.374516 -26.836199 190 62 63
2.281107 1.373578 -26.817881 203 79 79
2.138223 1.325621 -25.881552 191 80 72
2.127683 1.325621 -25.881552 183 70 60
2.110192 1.321269 -25.796583 182 68 62
2.096933 1.319536 -25.762751 179 67 61
2.085073 1.318671 -25.745869 179 66 64
2.077311 1.320402 -25.779655 175 62 60
2.072252 1.323876 -25.847496 163 52 50
2.061725 1.323876 -25.847496 161 52 50
2.047158 1.321269 -25.796583 159 54 51
2.036653 1.321269 -25.796583 153 54 50
2.023490 1.319536 -25.762751 144 52 47
2.011679 1.318671 -25.745869 139 53 47
2.009094 1.323876 -25.847496 120 42 36
1.998567 1.323876 -25.847496 106 36 29
1.994602 1.328246 -25.932802 95 29 24
2.800217 1.968975 -38.442463 43 4 6
2.781840 1.967050 -38.404884 48 6 7
2.779786 1.976711 -38.593513 56 8 7
2.767381 1.990398 -38.860729 67 11 10
2.759744 1.996321 -38.976383 71 12 10
2.757550 2.006273 -39.170685 74 10 9
2.744334 2.008276 -39.209774 78 8 8
2.731091 2.010282 -39.248947 85 5 6
2.715107 2.010282 -39.248947 91 5 5
2.699123 2.010282 -39.248947 98 7 10
2.683139 2.010282 -39.248947 105 11 12
2.669822 2.012292 -39.288197 114 17 19
2.651171 2.010282 -39.248947 121 28 27
2.635187 2.010282 -39.248947 130 37 36
2.621822 2.012292 -39.288197 135 43 42
2.603219 2.010282 -39.248947 126 34 33
2.589822 2.012292 -39.288197 117 24 23
2.573822 2.012292 -39.288197 107 14 13
2.557822 2.012292 -39.288197 101 9 8
2.541822 2.012292 -39.288197 95 10 8
2.528351 2.014306 -39.327522 93 14 11
2.514852 2.016325 -39.366928 84 15 12
2.498820 2.016325 -39.366928 72 13 11
2.485278 2.018347 -39.406414 59 12 8
2.469230 2.018347 -39.406414 51 13 9
2.450724 2.016325 -39.366928 42 12 7
2.432255 2.014306 -39.327522 35 13 7
2.416239 2.014306 -39.327522 28 14 8
2.402627 2.016325 -39.366928 28 18 11
2.391388 2.020374 -39.445980 27 21 16
2.811352 1.271524 -25.024328 147 1 5
2.810110 1.275586 -25.104279 148 2 4
2.801677 1.276402 -25.120329 152 6 8
2.789663 1.275586 -25.104279 151 5 7
2.779439 1.275586 -25.104279 152 3 6
2.769216 1.275586 -25.104279 150 1 4
2.760756 1.276402 -25.120329 152 4 4
2.750526 1.276402 -25.120329 161 11 11
2.738544 1.275586 -25.104279 164 13 16
2.731812 1.277218 -25.136402 163 11 16
2.721787 1.282140 -25.233267 159 10 13
2.718495 1.285442 -25.298258 161 12 15
2.720454 1.291263 -25.412804 164 15 18
2.708353 1.290428 -25.396378 163 17 17
2.701503 1.292098 -25.429253 165 19 19
2.691147 1.292098 -25.429253 168 22 22
2.670421 1.287100 -25.330881 165 19 19
2.654969 1.284615 -25.281979 164 18 18
2.654924 1.289594 -25.379971 166 20 22
2.648009 1.291263 -25.412804 170 21 24
2.635955 1.290428 -25.396378 170 21 25
2.623916 1.289594 -25.379971 170 21 25
2.610208 1.287930 -25.347223 174 24 30
2.593193 1.284615 -25.281979 176 26 32
2.576266 1.281317 -25.217070 179 28 37
2.570947 1.283789 -25.265720 180 32 38
2.573899 1.290428 -25.396378 175 27 33
2.518355 1.293773 -25.462214 177 41 37
2.497617 1.293773 -25.462214 179 43 37
2.469709 1.295452 -25.495260 183 43 37
2.457732 1.294612 -25.478725 182 39 34
2.486180 1.367323 -26.909723 183 25 31
2.473526 1.366387 -26.891304 193 35 41
2.460891 1.365453 -26.872911 202 42 48
2.449947 1.365453 -26.872911 199 40 44
2.439003 1.365453 -26.872911 195 33 38
2.429721 1.366387 -26.891304 196 33 35
2.415463 1.364519 -26.854542 197 34 36
2.406171 1.365453 -26.872911 197 34 36
2.398508 1.367323 -26.909723 200 35 38
2.385915 1.366387 -26.891304 193 28 31
2.374964 1.366387 -26.891304 198 35 37
2.360781 1.364519 -26.854542 202 39 41
2.317035 1.364519 -26.854542 187 29 35
2.151598 1.316815 -25.915695 191 54 52
2.136815 1.314215 -25.864513 200 62 56
2.126282 1.314215 -25.864513 193 53 46
2.110192 1.310763 -25.796583 191 51 45
2.096933 1.309044 -25.762751 192 51 48
2.085073 1.308186 -25.745869 196 52 51
2.078675 1.310763 -25.796583 195 51 50
2.072252 1.313350 -25.847496 190 46 45
2.063082 1.314215 -25.864513 188 46 45
2.048503 1.311624 -25.813532 180 40 39
2.039331 1.312487 -25.830503 179 44 42
2.024818 1.309903 -25.779655 172 43 40
2.014319 1.309903 -25.779655 165 45 40
2.011741 1.315080 -25.881552 151 38 35
2.001200 1.315080 -25.881552 147 40 36
1.995920 1.318555 -25.949930 147 47 43
2.783874 1.941918 -38.218090 39 7 8
2.762934 1.938148 -38.143879 43 6 8
2.767381 1.974572 -38.860729 59 9 9
2.762485 1.982415 -39.015091 62 8 7
2.760302 1.992307 -39.209774 64 7 8
2.747075 1.994298 -39.248947 70 6 6
2.733822 1.996292 -39.288197 79 4 6
2.717822 1.996292 -39.288197 88 5 7
2.704527 1.998290 -39.327522 91 7 9
2.685822 1.996292 -39.288197 98 9 12
2.672495 1.998290 -39.327522 105 14 17
2.653822 1.996292 -39.288197 115 25 25
2.637822 1.996292 -39.288197 129 39 39
2.624447 1.998290 -39.327522 140 50 49
2.605822 1.996292 -39.288197 131 39 38
2.592415 1.998290 -39.327522 120 27 26
2.576399 1.998290 -39.327522 111 15 15
2.560383 1.998290 -39.327522 106 10 10
2.544367 1.998290 -39.327522 98 8 7
2.530884 2.000293 -39.366928 96 11 9
2.517374 2.002299 -39.406414 90 13 11
2.501326 2.002299 -39.406414 79 10 7
2.487773 2.004309 -39.445980 68 11 9
2.474193 2.006324 -39.485622 60 15 11
2.455645 2.004309 -39.445980 53 18 14
2.434692 2.000293 -39.366928 44 20 14
2.421086 2.002299 -39.406414 31 19 13
2.409872 2.006324 -39.485622 26 20 13
2.811352 1.261333 -25.024328 148 5 8
2.810110 1.265362 -25.104279 148 2 6
2.799886 1.265362 -25.104279 149 3 7
2.787881 1.264554 -25.088247 148 2 6
2.779439 1.265362 -25.104279 152 6 8
2.770986 1.266171 -25.120329 155 9 11
2.758992 1.265362 -25.104279 155 9 11
2.750526 1.266171 -25.120329 158 12 14
2.740296 1.266171 -25.120329 158 12 14
2.731812 1.266981 -25.136402 158 12 16
2.727041 1.274319 -25.281979 157 10 14
2.725515 1.278432 -25.363586 155 9 11
2.722215 1.281742 -25.429253 160 14 16
2.710105 1.280913 -25.412804 164 18 20
2.701503 1.281742 -25.429253 163 17 17
2.689406 1.280913 -25.412804 162 16 16
2.672143 1.277608 -25.347223 166 18 18
2.656679 1.275140 -25.298258 165 17 17
2.654924 1.279258 -25.379971 168 19 22
2.649723 1.281742 -25.429253 172 21 24
2.637660 1.280913 -25.412804 172 20 25
2.627311 1.280913 -25.412804 173 21 26
2.613580 1.279258 -25.379971 178 24 29
2.596535 1.275961 -25.314558 179 25 30
2.579577 1.272681 -25.249483 181 29 35
2.575916 1.275961 -25.314558 183 33 39
2.570576 1.278432 -25.363586 180 30 36
2.563557 1.280085 -25.396378 180 33 37
2.469709 1.285069 -25.495260 188 50 38
2.457732 1.284236 -25.478725 182 41 30
2.484478 1.355436 -26.891304 186 18 24
2.473526 1.355436 -26.891304 190 22 28
2.459209 1.353583 -26.854542 190 20 26
2.448272 1.353583 -26.854542 186 14 20
2.439003 1.354509 -26.872911 183 11 17
2.428059 1.354509 -26.872911 188 15 19
2.413813 1.352659 -26.836199 191 18 22
2.406171 1.354509 -26.872911 192 20 22
2.398508 1.356364 -26.909723 194 19 22
2.385915 1.355436 -26.891304 192 15 18
2.374964 1.355436 -26.891304 195 18 21
2.163579 1.307123 -25.932802 196 33 35
2.150179 1.305400 -25.898613 194 31 32
2.135409 1.302824 -25.847496 195 34 30
2.124883 1.302824 -25.847496 194 31 28
2.110192 1.300257 -25.796583 192 29 26
2.096933 1.298552 -25.762751 196 33 31
2.085073 1.297701 -25.745869 198 35 33
2.078675 1.300257 -25.796583 200 36 37
2.073616 1.303681 -25.864513 202 38 39
2.063082 1.303681 -25.864513 197 34 35
2.049850 1.301967 -25.830503 186 26 26
2.040673 1.302824 -25.847496 190 32 32
2.026147 1.300257 -25.796583 188 35 34
2.016966 1.301112 -25.813532 179 32 30
2.013067 1.305400 -25.898613 171 29 28
2.002520 1.305400 -25.898613 171 34 32
1.995920 1.307987 -25.949930 183 49 49
1.986664 1.308851 -25.967083 174 51 49
2.775773 1.920749 -38.106880 33 6 9
2.757580 1.918888 -38.069958 39 7 8
2.764647 1.956810 -38.822327 50 6 7
2.762485 1.966526 -39.015091 54 6 5
2.760302 1.976339 -39.209774 55 5 7
2.747075 1.978314 -39.248947 61 4 5
2.733822 1.980292 -39.288197 70 3 6
2.720543 1.982274 -39.327522 78 5 7
2.704527 1.982274 -39.327522 81 6 8
2.685822 1.980292 -39.288197 85 7 8
2.672495 1.982274 -39.327522 88 8 9
2.656479 1.982274 -39.327522 94 12 11
2.640463 1.982274 -39.327522 106 20 20
2.624447 1.982274 -39.327522 117 29 29
2.608431 1.982274 -39.327522 120 30 29
2.592415 1.982274 -39.327522 115 22 21
2.576399 1.982274 -39.327522 110 14 14
2.562948 1.984261 -39.366928 107 11 11
2.544367 1.982274 -39.327522 102 9 8
2.530884 1.984261 -39.366928 102 10 9
2.517374 1.986251 -39.406414 99 12 10
2.503838 1.988245 -39.445980 88 9 6
2.490274 1.990243 -39.485622 79 10 7
2.476682 1.992245 -39.525349 68 13 8
2.458113 1.990243 -39.485622 57 17 12
2.808316 1.254337 -25.088247 147 4 7
2.799886 1.255139 -25.104279 144 1 4
2.786102 1.253537 -25.072237 146 0 4
2.777664 1.254337 -25.088247 154 8 12
2.769216 1.255139 -25.104279 155 10 12
2.757230 1.254337 -25.088247 147 4 6
2.747013 1.254337 -25.088247 149 6 8
2.736796 1.254337 -25.088247 154 11 13
2.730065 1.255941 -25.120329 164 18 22
2.722000 1.266468 -25.330881 156 10 14
2.720454 1.270564 -25.412804 160 14 16
2.706604 1.268922 -25.379971 160 14 16
2.698010 1.269743 -25.396378 160 14 14
2.685932 1.268922 -25.379971 164 18 18
2.668700 1.265652 -25.314558 168 20 20
2.653262 1.263210 -25.265720 167 19 19
2.653210 1.268103 -25.363586 171 20 23
2.649723 1.271386 -25.429253 173 22 25
2.637660 1.270564 -25.412804 177 23 28
2.627311 1.270564 -25.412804 180 26 31
2.615270 1.269743 -25.396378 183 29 34
2.599885 1.267285 -25.347223 184 30 35
2.582897 1.264023 -25.281979 180 28 34
2.579240 1.267285 -25.347223 187 35 41
2.572237 1.268922 -25.379971 188 38 44
2.563557 1.269743 -25.396378 195 46 50
2.518355 1.273034 -25.462214 198 65 57
2.469709 1.274687 -25.495260 233 100 86
2.457732 1.273860 -25.478725 208 73 59
2.470145 1.342647 -26.854542 182 8 15
2.457529 1.341730 -26.836199 185 9 16
2.446600 1.341730 -26.836199 187 12 16
2.437336 1.342647 -26.854542 190 12 17
2.426399 1.342647 -26.854542 188 10 15
2.413813 1.341730 -26.836199 185 8 11
2.404526 1.342647 -26.854542 183 6 9
2.398508 1.345405 -26.909723 192 11 15
2.387549 1.345405 -26.909723 193 10 14
2.376590 1.345405 -26.909723 192 9 13
2.171274 1.294853 -25.898613 190 12 17
2.160727 1.294853 -25.898613 191 16 20
2.148763 1.294000 -25.881552 192 17 20
2.135409 1.292297 -25.847496 188 12 11
2.123486 1.291448 -25.830503 192 16 15
2.110192 1.289752 -25.796583 194 18 17
2.096933 1.288060 -25.762751 200 24 24
2.086441 1.288060 -25.762751 199 25 25
2.081409 1.291448 -25.830503 200 25 28
2.074982 1.294000 -25.881552 204 29 32
2.064441 1.294000 -25.881552 193 21 23
2.052549 1.293148 -25.864513 185 14 16
2.043361 1.294000 -25.881552 188 20 19
2.028811 1.291448 -25.830503 193 25 24
2.019620 1.292297 -25.847496 183 20 18
2.014395 1.295707 -25.915695 178 18 18
2.005163 1.296562 -25.932802 177 19 19
1.997239 1.298276 -25.967083 185 29 30
1.987978 1.299135 -25.984257 175 27 27
2.762485 1.950638 -39.015091 50 6 7
2.760302 1.960371 -39.209774 54 7 9
2.749822 1.964292 -39.288197 60 8 8
2.736559 1.966258 -39.327522 64 6 7
2.720543 1.966258 -39.327522 69 4 6
2.704527 1.966258 -39.327522 69 3 4
2.685822 1.964292 -39.288197 74 4 5
2.672495 1.966258 -39.327522 79 5 5
2.656479 1.966258 -39.327522 83 5 6
2.640463 1.966258 -39.327522 89 9 8
2.624447 1.966258 -39.327522 94 12 11
2.608431 1.966258 -39.327522 102 17 15
2.592415 1.966258 -39.327522 101 14 12
2.576399 1.966258 -39.327522 100 13 11
2.562948 1.968228 -39.366928 101 11 10
2.546916 1.968228 -39.366928 101 9 8
2.530884 1.968228 -39.366928 101 9 8
2.519902 1.972181 -39.445980 101 9 8
2.503838 1.972181 -39.445980 94 8 8
2.490274 1.974163 -39.485622 89 12 10
2.479177 1.978139 -39.565151 75 12 8
2.463064 1.978139 -39.565151 60 13 9
2.810110 1.244915 -25.104279 147 4 7
2.799886 1.244915 -25.104279 151 8 11
2.786102 1.243326 -25.072237 148 5 8
2.777664 1.244120 -25.088247 144 1 4
2.769216 1.244915 -25.104279 143 0 3
2.757230 1.244120 -25.088247 147 6 9
2.747013 1.244120 -25.088247 157 16 19
2.735049 1.243326 -25.072237 163 20 23
2.730065 1.245711 -25.120329 157 11 15
2.716745 1.253727 -25.281979 160 14 16
2.718696 1.259400 -25.396378 165 16 19
2.704856 1.257774 -25.363586 162 13 16
2.696268 1.258587 -25.379971 160 12 12
2.685932 1.258587 -25.379971 166 18 18
2.670421 1.256152 -25.330881 169 21 21
2.653262 1.252921 -25.265720 167 19 19
2.616961 1.260215 -25.412804 180 29 32
2.601564 1.257774 -25.363586 180 28 33
2.586226 1.255343 -25.314558 185 33 39
2.580905 1.257774 -25.363586 188 36 42
2.572237 1.258587 -25.379971 186 36 42
2.565215 1.260215 -25.412804 193 46 50
2.547812 1.261847 -25.445723 187 44 46
2.539094 1.262665 -25.462214 190 53 51
2.528725 1.262665 -25.462214 194 60 56
2.518355 1.262665 -25.462214 205 75 70
2.469709 1.264304 -25.495260 243 118 104
2.459327 1.264304 -25.495260 212 84 71
2.450833 1.327174 -26.763075 183 8 12
2.441597 1.328079 -26.781319 186 11 15
2.432348 1.328985 -26.799587 188 13 17
2.423087 1.329892 -26.817881 187 12 15
2.410520 1.328985 -26.799587 185 10 13
2.393590 1.331710 -26.854542 187 8 9
2.384283 1.332621 -26.872911 187 7 8
2.371717 1.331710 -26.854542 191 9 10
2.157882 1.282615 -25.864513 189 10 13
2.147348 1.282615 -25.864513 192 11 15
2.134006 1.280928 -25.830503 193 11 12
2.122091 1.280087 -25.813532 194 12 13
2.110192 1.279246 -25.796583 195 15 16
2.096933 1.277569 -25.762751 195 16 19
2.086441 1.277569 -25.762751 193 16 19
2.082778 1.281771 -25.847496 196 21 25
2.076349 1.284306 -25.898613 198 25 29
2.065802 1.284306 -25.898613 192 21 23
2.053901 1.283460 -25.881552 189 18 20
2.044708 1.284306 -25.898613 185 14 16
2.030146 1.281771 -25.847496 186 15 17
2.022281 1.283460 -25.881552 182 11 13
2.015724 1.286001 -25.932802 177 8 10
2.006488 1.286851 -25.949930 181 12 14
1.998560 1.288553 -25.984257 182 15 18
1.989293 1.289406 -26.001453 177 16 18
1.980015 1.290260 -26.018673 164 14 13
2.754803 1.940530 -39.131668 53 7 6
2.736559 1.950242 -39.327522 62 10 10
2.720543 1.950242 -39.327522 63 7 6
2.704527 1.950242 -39.327522 65 5 5
2.685822 1.948292 -39.288197 69 5 5
2.672495 1.950242 -39.327522 74 4 4
2.656479 1.950242 -39.327522 77 3 3
2.640463 1.950242 -39.327522 79 4 2
2.624447 1.950242 -39.327522 80 5 3
2.608431 1.950242 -39.327522 81 6 4
2.592415 1.950242 -39.327522 82 7 5
2.576399 1.950242 -39.327522 81 6 4
2.562948 1.952196 -39.366928 83 6 4
2.546916 1.952196 -39.366928 88 6 5
2.530884 1.952196 -39.366928 89 6 5
2.519902 1.956116 -39.445980 92 4 4
2.503838 1.956116 -39.445980 92 5 8
2.490274 1.958082 -39.485622 94 11 13
2.479177 1.962026 -39.565151 80 10 10
2.465547 1.964004 -39.605034 65 12 9
3.974264 1.455039 -29.584484 78 2 3
3.935156 1.453944 -29.562223 83 3 4
3.929030 1.456136 -29.606779 83 3 4
3.904915 1.456136 -29.606779 85 2 1
3.895794 1.457234 -29.629107 90 2 2
2.811907 1.235481 -25.120329 146 0 4
2.801677 1.235481 -25.120329 146 3 6
2.787881 1.233903 -25.088247 144 1 4
2.779439 1.234691 -25.104279 145 2 5
2.770986 1.235481 -25.120329 145 2 5
2.758992 1.234691 -25.104279 145 4 7
2.747013 1.233903 -25.088247 151 10 13
2.735049 1.233116 -25.072237 154 11 14
2.730065 1.235481 -25.120329 158 11 15
2.714998 1.242632 -25.265720 152 3 6
2.716939 1.248251 -25.379971 159 8 11
2.703111 1.246640 -25.347223 163 14 17
2.692789 1.246640 -25.347223 165 15 15
2.685932 1.248251 -25.379971 163 15 15
2.672143 1.246640 -25.347223 166 16 16
2.651557 1.241833 -25.249483 166 16 16
2.618655 1.250674 -25.429253 176 25 28
2.603244 1.248251 -25.379971 174 22 27
2.586226 1.245034 -25.314558 170 20 26
2.582572 1.248251 -25.379971 182 31 40
2.572237 1.248251 -25.379971 181 31 37
2.565215 1.249865 -25.412804 176 28 34
2.547812 1.251484 -25.445723 179 36 39
2.530365 1.253108 -25.478725 187 52 50
2.519989 1.253108 -25.478725 189 56 53
2.460923 1.254735 -25.511816 186 55 45
2.430690 1.317172 -26.781319 185 10 13
2.419783 1.317172 -26.781319 187 12 15
2.408877 1.317172 -26.781319 184 9 12
2.152214 1.268741 -25.796583 190 9 13
2.143116 1.269574 -25.813532 190 9 13
2.131203 1.268741 -25.796583 192 7 9
2.119306 1.267908 -25.779655 189 4 6
2.107424 1.267077 -25.762751 196 13 17
2.095558 1.266246 -25.745869 193 14 17
2.085073 1.266246 -25.745869 191 13 18
2.081409 1.270409 -25.830503 196 21 25
2.074982 1.272920 -25.881552 194 21 25
2.064441 1.272920 -25.881552 190 17 21
2.053901 1.272920 -25.881552 185 13 15
2.043361 1.272920 -25.881552 177 5 7
2.031483 1.272082 -25.864513 178 6 8
2.023614 1.273759 -25.898613 182 10 12
2.015724 1.275440 -25.932802 179 7 9
2.006488 1.276283 -25.949930 182 11 13
1.998560 1.277971 -25.984257 177 5 9
1.990611 1.279664 -26.018673 173 7 8
1.981327 1.280512 -26.035915 164 8 8
2.749326 1.920767 -39.053871 59 9 9
2.717822 1.932292 -39.288197 66 11 8
2.704527 1.934226 -39.327522 70 10 10
2.683139 1.930362 -39.248947 75 11 10
2.669822 1.932292 -39.288197 79 9 9
2.653822 1.932292 -39.288197 78 6 6
2.640463 1.934226 -39.327522 79 5 3
2.624447 1.934226 -39.327522 78 7 4
2.608431 1.934226 -39.327522 72 3 0
2.592415 1.934226 -39.327522 72 5 2
2.573822 1.932292 -39.288197 69 5 1
2.560383 1.934226 -39.327522 69 5 1
2.544367 1.934226 -39.327522 77 7 7
2.530884 1.936164 -39.366928 82 8 8
2.517374 1.938106 -39.406414 84 6 7
2.503838 1.940052 -39.445980 86 8 9
2.487773 1.940052 -39.445980 83 7 8
2.479177 1.945913 -39.565151 76 9 8
2.465547 1.947875 -39.605034 64 13 10
4.007390 1.441905 -29.562223 77 4 6
3.989348 1.439739 -29.517803 78 5 7
3.977327 1.439739 -29.517803 77 3 3
3.965306 1.439739 -29.517803 78 2 3
3.953285 1.439739 -29.517803 81 3 4
3.941264 1.439739 -29.517803 81 3 4
3.926293 1.438658 -29.495642 83 3 4
3.920167 1.440821 -29.539997 84 4 5
3.905201 1.439739 -29.517803 86 3 2
3.893180 1.439739 -29.517803 85 2 1
3.889926 1.442991 -29.584484 90 2 2
3.883727 1.445167 -29.629107 92 2 2
3.874583 1.446258 -29.651468 94 1 2
2.787881 1.223686 -25.088247 149 3 7
2.770986 1.225251 -25.120329 147 4 7
2.758992 1.224468 -25.104279 149 6 9
2.714998 1.232342 -25.265720 155 4 7
2.715185 1.237116 -25.363586 159 6 9
2.703111 1.236317 -25.347223 158 7 10
2.692789 1.236317 -25.347223 168 15 18
2.684198 1.237116 -25.363586 169 18 21
2.673868 1.237116 -25.363586 173 20 23
2.651557 1.231550 -25.249483 168 17 20
2.604927 1.238715 -25.396378 171 22 26
2.587893 1.235520 -25.330881 172 24 30
2.585913 1.239516 -25.412804 175 29 34
2.573899 1.238715 -25.396378 176 30 35
2.549464 1.241926 -25.462214 172 26 30
2.540741 1.242732 -25.478725 175 32 35
2.532007 1.243538 -25.495260 177 34 36
2.523261 1.244345 -25.511816 175 35 36
2.467332 1.247586 -25.578253 171 22 18
2.453721 1.245964 -25.544991 178 25 22
2.138900 1.256585 -25.762751 187 7 8
2.128408 1.256585 -25.762751 188 7 11
2.116528 1.255762 -25.745869 189 8 12
2.106043 1.255762 -25.745869 191 11 16
2.094186 1.254939 -25.729008 191 13 18
2.085073 1.255762 -25.745869 193 15 20
2.080041 1.259062 -25.813532 199 21 26
2.074982 1.262379 -25.881552 198 23 27
2.064441 1.262379 -25.881552 191 16 20
2.053901 1.262379 -25.881552 192 17 20
2.043361 1.262379 -25.881552 183 8 11
2.031483 1.261548 -25.864513 182 10 10
2.024949 1.264045 -25.915695 181 9 9
2.015724 1.264879 -25.932802 183 12 14
2.006488 1.265715 -25.949930 177 8 10
1.998560 1.267389 -25.984257 177 10 13
1.990611 1.269068 -26.018673 176 13 14
1.982641 1.270751 -26.053181 164 8 8
2.738438 1.897319 -38.899204 66 13 10
2.712398 1.912467 -39.209774 79 16 12
2.680461 1.912467 -39.209774 92 23 20
2.667155 1.914378 -39.248947 104 30 28
2.651171 1.914378 -39.248947 93 19 17
2.637822 1.916292 -39.288197 82 8 6
2.621822 1.916292 -39.288197 75 6 3
2.605822 1.916292 -39.288197 73 8 7
2.589822 1.916292 -39.288197 67 6 4
2.573822 1.916292 -39.288197 62 5 3
2.560383 1.918210 -39.327522 62 7 4
2.544367 1.918210 -39.327522 63 7 6
2.528351 1.918210 -39.327522 63 6 5
2.517374 1.922058 -39.406414 67 5 5
2.503838 1.923988 -39.445980 68 6 6
2.487773 1.923988 -39.445980 67 5 5
2.476682 1.927859 -39.525349 66 10 9
2.460586 1.927859 -39.525349 55 12 9
4.007390 1.429866 -29.562223 77 4 6
3.989348 1.427717 -29.517803 77 4 6
3.974341 1.426646 -29.495642 78 4 4
3.962329 1.426646 -29.495642 79 3 4
3.953285 1.427717 -29.517803 79 3 4
3.941264 1.427717 -29.517803 81 3 4
3.926293 1.426646 -29.495642 82 4 5
3.920167 1.428791 -29.539997 85 5 6
3.908137 1.428791 -29.539997 86 4 3
3.896107 1.428791 -29.539997 86 3 2
3.889926 1.430943 -29.584484 88 2 2
3.883727 1.433101 -29.629107 90 2 2
3.871661 1.433101 -29.629107 92 2 2
2.720246 1.224415 -25.314558 157 6 9
2.718696 1.228372 -25.396378 159 8 11
2.706604 1.227579 -25.379971 162 11 14
2.696268 1.227579 -25.379971 166 15 18
2.685932 1.227579 -25.379971 165 14 17
2.675596 1.227579 -25.379971 166 15 18
2.660105 1.225204 -25.330881 167 16 19
2.634126 1.232355 -25.478725 171 20 23
2.622049 1.231557 -25.462214 173 22 25
2.608299 1.229962 -25.429253 174 25 28
2.594584 1.228372 -25.396378 168 21 25
2.551117 1.232355 -25.478725 175 29 31
2.544040 1.233956 -25.511816 173 26 30
2.538596 1.236364 -25.561611 168 22 24
2.526542 1.235560 -25.544991 166 20 22
2.468940 1.237975 -25.594915 174 16 16
2.455317 1.236364 -25.561611 176 16 16
2.138900 1.246093 -25.762751 192 12 13
2.127013 1.245277 -25.745869 191 12 15
2.115142 1.244461 -25.729008 184 5 8
2.106043 1.245277 -25.745869 183 6 9
2.095558 1.245277 -25.745869 188 11 14
2.085073 1.245277 -25.745869 192 14 19
2.080041 1.248549 -25.813532 195 18 21
2.074982 1.251839 -25.881552 198 20 25
2.065802 1.252664 -25.898613 198 21 24
2.055255 1.252664 -25.898613 197 20 23
2.044708 1.252664 -25.898613 183 7 7
2.034161 1.252664 -25.898613 180 6 6
2.024949 1.253491 -25.915695 183 11 11
2.017056 1.255147 -25.949930 185 15 14
2.006488 1.255147 -25.949930 175 9 10
1.998560 1.256807 -25.984257 169 5 6
1.990611 1.258471 -26.018673 170 7 8
1.982641 1.260141 -26.053181 161 5 5
2.730328 1.875905 -38.784004 73 12 8
2.730707 1.887082 -39.015091 80 13 10
2.725645 1.894608 -39.170685 79 10 7
2.706994 1.892721 -39.131668 88 14 12
2.693741 1.894608 -39.170685 92 18 16
2.672460 1.890838 -39.092731 101 26 24
2.661837 1.894608 -39.170685 105 30 28
2.645885 1.894608 -39.170685 99 24 22
2.635187 1.898394 -39.248947 87 13 11
2.619203 1.898394 -39.248947 80 11 8
2.603219 1.898394 -39.248947 73 8 7
2.587235 1.898394 -39.248947 69 8 6
2.568685 1.896499 -39.209774 64 7 6
2.557822 1.900292 -39.288197 63 7 6
2.541822 1.900292 -39.288197 57 6 4
2.528351 1.902194 -39.327522 54 5 3
2.514852 1.904100 -39.366928 55 5 5
2.501326 1.906010 -39.406414 56 6 6
2.485278 1.906010 -39.406414 56 8 7
2.471709 1.907924 -39.445980 51 10 7
2.455645 1.907924 -39.445980 39 8 5
3.980318 1.416761 -29.539997 76 4 4
3.965306 1.415697 -29.517803 77 5 5
3.956257 1.416761 -29.539997 79 5 5
3.947195 1.417827 -29.562223 80 4 5
3.929243 1.415697 -29.517803 82 4 5
3.923117 1.417827 -29.562223 85 5 6
3.911078 1.417827 -29.562223 84 4 3
3.899039 1.417827 -29.562223 85 3 2
3.892858 1.419964 -29.606779 85 3 2
3.886658 1.422107 -29.651468 86 3 2
3.868743 1.419964 -29.606779 88 2 2
2.723756 1.215672 -25.347223 155 10 12
2.720454 1.218818 -25.412804 160 14 16
2.706604 1.217243 -25.379971 163 17 19
2.698010 1.218030 -25.396378 165 16 20
2.685932 1.217243 -25.379971 159 10 14
2.677325 1.218030 -25.396378 165 16 20
2.649657 1.224361 -25.528393 167 18 21
2.637547 1.223566 -25.511816 169 20 23
2.623750 1.221979 -25.478725 167 18 21
2.611680 1.221187 -25.462214 164 15 18
2.580572 1.221187 -25.462214 172 21 24
2.561493 1.221979 -25.478725 173 22 25
2.552772 1.222772 -25.495260 175 25 25
2.549006 1.225954 -25.561611 177 26 29
2.543561 1.228352 -25.611601 174 24 24
2.531480 1.227552 -25.594915 169 19 19
2.470549 1.228352 -25.611601 178 15 17
2.455317 1.225954 -25.561611 175 11 12
2.154233 1.232369 -25.695353 190 10 11
2.147983 1.234792 -25.745869 187 7 8
2.138900 1.235601 -25.762751 186 7 8
2.128408 1.235601 -25.762751 189 10 11
2.116528 1.234792 -25.745869 184 5 6
2.107424 1.235601 -25.762751 185 6 7
2.096933 1.235601 -25.762751 193 14 15
2.087810 1.236412 -25.779655 197 18 21
2.081409 1.238851 -25.830503 197 18 19
2.076349 1.242117 -25.898613 197 18 21
2.065802 1.242117 -25.898613 197 18 19
2.055255 1.242117 -25.898613 199 20 21
2.046057 1.242937 -25.915695 189 13 12
2.034161 1.242117 -25.898613 185 12 10
2.026285 1.243757 -25.932802 184 13 11
2.017056 1.244579 -25.949930 182 12 10
2.007814 1.245401 -25.967083 178 12 11
1.999882 1.247050 -26.001453 169 6 4
1.991930 1.248702 -26.035915 163 3 3
1.983956 1.250360 -26.070469 168 10 10
2.743414 1.858276 -38.745754 74 10 6
2.730328 1.860111 -38.784004 81 10 7
2.725295 1.867485 -38.937756 88 11 8
2.720221 1.874917 -39.092731 89 10 7
2.701612 1.873054 -39.053871 93 12 9
2.688380 1.874917 -39.092731 95 14 11
2.669803 1.873054 -39.053871 103 24 21
2.659185 1.876785 -39.131668 106 27 24
2.643249 1.876785 -39.131668 106 29 26
2.632557 1.880531 -39.209774 95 20 18
2.616589 1.880531 -39.209774 89 15 13
2.600621 1.880531 -39.209774 82 10 10
2.584653 1.880531 -39.209774 81 11 11
2.568685 1.880531 -39.209774 77 11 12
2.555267 1.882410 -39.248947 72 10 10
2.541822 1.884292 -39.288197 63 6 7
2.528351 1.886178 -39.327522 54 4 4
2.514852 1.888068 -39.366928 51 4 6
2.501326 1.889962 -39.406414 46 7 5
2.485278 1.889962 -39.406414 38 7 4
2.469230 1.889962 -39.406414 34 12 7
4.013431 1.407907 -29.606779 73 3 4
4.001373 1.407907 -29.606779 71 3 4
3.983312 1.405788 -29.562223 74 4 4
3.971273 1.405788 -29.562223 74 4 4
3.962216 1.406846 -29.584484 78 4 4
3.950167 1.406846 -29.584484 78 4 4
3.932197 1.404731 -29.539997 81 3 4
3.926071 1.406846 -29.584484 82 4 5
3.911078 1.405788 -29.562223 83 3 2
3.901975 1.406846 -29.584484 82 2 1
3.892858 1.407907 -29.606779 85 3 2
3.886658 1.410032 -29.651468 85 3 2
2.706604 1.206907 -25.379971 161 15 17
2.698010 1.207687 -25.396378 158 11 15
2.685932 1.206907 -25.379971 154 5 9
2.639261 1.213965 -25.528393 169 20 23
2.627157 1.213177 -25.511816 168 19 22
2.613374 1.211603 -25.478725 166 17 20
2.601310 1.210818 -25.462214 167 17 17
2.590941 1.210818 -25.462214 172 22 22
2.580572 1.210818 -25.462214 174 21 22
2.571869 1.211603 -25.478725 173 20 21
2.563155 1.212389 -25.495260 172 19 20
2.556090 1.213965 -25.528393 172 19 20
2.550666 1.216336 -25.578253 176 23 24
2.543561 1.217922 -25.611601 175 21 22
2.533131 1.217922 -25.611601 172 18 19
2.470549 1.217922 -25.611601 180 13 16
2.455317 1.215545 -25.561611 177 10 13
2.441730 1.213965 -25.528393 181 12 14
2.150802 1.225913 -25.779655 189 10 11
2.143116 1.227524 -25.813532 189 10 11
2.131203 1.226718 -25.796583 189 9 10
2.119306 1.225913 -25.779655 187 7 8
2.110192 1.226718 -25.796583 186 6 7
2.099686 1.226718 -25.796583 187 7 8
2.089181 1.226718 -25.796583 190 10 11
2.082778 1.229139 -25.847496 195 15 16
2.076349 1.231570 -25.898613 198 18 19
2.067165 1.232383 -25.915695 197 17 18
2.056611 1.232383 -25.915695 194 16 15
2.046057 1.232383 -25.915695 194 16 15
2.035503 1.232383 -25.915695 191 16 13
2.026285 1.233196 -25.932802 187 14 11
2.017056 1.234011 -25.949930 180 9 7
2.007814 1.234826 -25.967083 183 13 11
1.999882 1.236461 -26.001453 175 9 8
1.991930 1.238099 -26.035915 171 7 8
1.983956 1.239743 -26.070469 170 10 10
2.748836 1.846138 -38.822327 79 10 7
2.733026 1.846138 -38.822327 87 10 8
2.725295 1.851627 -38.937756 96 13 11
2.720221 1.858997 -39.092731 97 14 12
2.701612 1.857149 -39.053871 97 14 12
2.688380 1.858997 -39.092731 97 14 12
2.669803 1.857149 -39.053871 102 19 17
2.659185 1.860849 -39.131668 100 19 16
2.643249 1.860849 -39.131668 99 20 17
2.632557 1.864563 -39.209774 92 15 13
2.616589 1.864563 -39.209774 86 9 7
2.600621 1.864563 -39.209774 87 9 10
2.587235 1.866426 -39.248947 90 12 13
2.568685 1.864563 -39.209774 91 12 15
2.557822 1.868292 -39.288197 84 11 13
2.541822 1.868292 -39.288197 73 8 10
2.528351 1.870162 -39.327522 64 7 8
2.514852 1.872036 -39.366928 57 9 8
2.501326 1.873914 -39.406414 47 12 9
3.986312 1.394798 -29.584484 71 4 3
3.974264 1.394798 -29.584484 74 4 4
3.965201 1.395849 -29.606779 77 3 3
3.953144 1.395849 -29.606779 77 3 3
3.935156 1.393749 -29.562223 81 3 4
3.929030 1.395849 -29.606779 81 3 4
3.916972 1.395849 -29.606779 83 3 2
3.907860 1.396902 -29.629107 82 2 1
3.895794 1.396902 -29.629107 82 2 1
2.708353 1.197345 -25.396378 160 11 14
2.699756 1.198119 -25.412804 159 10 14
2.685932 1.196571 -25.379971 160 8 13
2.640977 1.204351 -25.544991 162 10 15
2.627157 1.202787 -25.511816 162 11 14
2.613374 1.201227 -25.478725 165 14 17
2.601310 1.200449 -25.462214 163 15 15
2.590941 1.200449 -25.462214 169 22 20
2.580572 1.200449 -25.462214 173 23 22
2.571869 1.201227 -25.478725 174 22 21
2.564820 1.202787 -25.511816 170 17 18
2.557752 1.204351 -25.544991 169 15 16
2.552327 1.206705 -25.594915 171 17 18
2.545220 1.208279 -25.628307 172 16 17
2.533131 1.207492 -25.611601 170 14 15
2.468940 1.206705 -25.594915 184 13 15
2.455317 1.205135 -25.561611 184 13 15
2.441730 1.203569 -25.528393 181 9 13
2.158468 1.213822 -25.745869 189 10 13
2.153628 1.217012 -25.813532 188 9 12
2.145936 1.218613 -25.847496 191 10 14
2.134006 1.217812 -25.830503 187 2 4
2.123486 1.217812 -25.830503 191 4 6
2.112967 1.217812 -25.830503 189 4 6
2.102447 1.217812 -25.830503 187 2 4
2.093304 1.218613 -25.847496 189 7 8
2.085522 1.220219 -25.881552 193 13 14
