ply
format ascii 1.0
element vertex 1245
property float x
property float y
property float z
property uchar red
property uchar green
property uchar blue
end_header
-0.763804 -0.558509 -13.645486 65 54 46
-0.770761 -0.558254 -13.639256 63 56 47
-0.778067 -0.558254 -13.639256 60 55 46
-0.785732 -0.558509 -13.645486 63 53 46
-0.793403 -0.558764 -13.651723 67 55 49
-0.800716 -0.558764 -13.651723 70 58 54
-0.808398 -0.559019 -13.657965 62 53 49
-0.815714 -0.559019 -13.657965 35 31 26
-0.821528 -0.557999 -13.633030 14 10 5
-0.828074 -0.557490 -13.620597 20 7 5
-0.834229 -0.556728 -13.601990 24 4 3
-0.841515 -0.556728 -13.601990 30 4 4
-0.849188 -0.556982 -13.608186 29 5 5
-0.856477 -0.556982 -13.608186 19 4 2
-0.863373 -0.556728 -13.601990 16 7 4
-0.870659 -0.556728 -13.601990 9 6 2
-0.878745 -0.557236 -13.614388 3 2 0
-0.885231 -0.556728 -13.601990 4 2 1
-0.890894 -0.555716 -13.577258 7 8 6
-0.898575 -0.555969 -13.583433 8 9 7
-0.906263 -0.556222 -13.589613 5 6 4
-0.913958 -0.556475 -13.595798 6 4 4
-0.921661 -0.556728 -13.601990 4 2 2
-0.928947 -0.556728 -13.601990 7 2 3
-0.935381 -0.556222 -13.589613 8 2 3
-0.942660 -0.556222 -13.589613 12 4 4
-0.949507 -0.555969 -13.583433 16 6 6
-0.958091 -0.556728 -13.601990 22 12 12
-0.967138 -0.557744 -13.626811 25 15 15
-0.974437 -0.557744 -13.626811 19 10 7
-0.981289 -0.557490 -13.620597 16 7 4
-0.989487 -0.557999 -13.633030 16 8 8
-1.273327 -0.591473 -14.450880 2 2 2
-1.281068 -0.591473 -14.450880 2 2 2
-1.287562 -0.590902 -14.436911 3 3 3
-1.294670 -0.590616 -14.429936 5 3 2
-1.307602 -0.589477 -14.402106 3 4 2
-1.315317 -0.589477 -14.402106 4 5 3
-1.548262 -0.526972 -12.874987 0 2 2
-1.555158 -0.526972 -12.874987 0 4 3
-1.560037 -0.526292 -12.858359 0 5 4
-1.565577 -0.525839 -12.847299 3 5 5
-1.573813 -0.526292 -12.858359 3 5 5
-1.582062 -0.526745 -12.869439 3 3 3
-1.587588 -0.526292 -12.858359 1 1 1
-1.594476 -0.526292 -12.858359 3 3 3
-1.602743 -0.526745 -12.869439 3 3 3
-1.608943 -0.526518 -12.863897 3 3 3
-1.615834 -0.526518 -12.863897 3 3 3
-1.622725 -0.526518 -12.863897 2 2 2
-1.630317 -0.526745 -12.869439 2 2 2
-1.637917 -0.526972 -12.874987 3 3 3
-1.644813 -0.526972 -12.874987 3 3 3
-1.650287 -0.526518 -12.863897 2 2 2
-1.656464 -0.526292 -12.858359 3 3 3
-1.662636 -0.526065 -12.852826 4 4 4
-1.669521 -0.526065 -12.852826 4 4 4
-1.674964 -0.525613 -12.841775 3 3 3
-1.682566 -0.525839 -12.847299 6 6 6
-1.689448 -0.525839 -12.847299 9 8 10
-1.696330 -0.525839 -12.847299 12 12 12
-1.700286 -0.524936 -12.825233 13 11 11
-1.705691 -0.524485 -12.814229 13 11 10
-1.711821 -0.524260 -12.808735 10 8 7
-1.724804 -0.524036 -12.803245 8 6 5
-1.725744 -0.522245 -12.759491 11 9 8
-1.730361 -0.521577 -12.743161 9 10 8
-1.735706 -0.521132 -12.732297 10 11 9
-1.741784 -0.520910 -12.726872 11 11 11
-1.748601 -0.520910 -12.726872 14 14 14
-1.754671 -0.520688 -12.721452 13 13 13
-1.759986 -0.520245 -12.710625 9 9 9
-1.766043 -0.520024 -12.705218 11 9 9
-1.769086 -0.518920 -12.678255 13 11 11
-1.772867 -0.518040 -12.656767 12 10 10
-1.824785 -0.517383 -12.640697 4 4 4
-1.822302 -0.514769 -12.576829 4 4 4
-1.858810 -0.513687 -12.550407 4 4 4
-1.864749 -0.513471 -12.545135 3 3 3
-1.889670 -0.514769 -12.576829 1 3 3
-1.898806 -0.515420 -12.592735 0 2 2
-1.903144 -0.514769 -12.576829 0 2 2
-1.911490 -0.515202 -12.587429 2 2 2
-1.922283 -0.516290 -12.614007 2 2 2
-1.954262 -0.517602 -12.646049 4 4 4
-1.958548 -0.516945 -12.630008 3 3 3
-1.961995 -0.516072 -12.608683 3 3 3
-1.970413 -0.516508 -12.619336 3 3 3
-1.978008 -0.516727 -12.624670 3 3 3
-2.040733 -0.518920 -12.678255 3 3 3
-2.096514 -0.517602 -12.646049 3 3 3
-2.101509 -0.517164 -12.635350 3 3 3
-2.199903 -0.507082 -12.389037 8 8 8
-2.206540 -0.507082 -12.389037 8 8 8
-2.215013 -0.507503 -12.399323 7 7 7
-2.221655 -0.507503 -12.399323 8 8 8
-2.228297 -0.507503 -12.399323 9 9 9
-2.234938 -0.507503 -12.399323 9 9 9
-2.241580 -0.507503 -12.399323 8 8 8
-2.248222 -0.507503 -12.399323 8 8 8
-2.255800 -0.507714 -12.404472 7 7 7
-2.261506 -0.507503 -12.399323 6 6 6
-2.267206 -0.507293 -12.394177 5 5 5
-2.272902 -0.507082 -12.389037 3 3 3
-2.278593 -0.506872 -12.383901 4 4 4
-2.286175 -0.507082 -12.389037 3 3 3
-2.292811 -0.507082 -12.389037 3 3 3
-2.299447 -0.507082 -12.389037 4 4 4
-2.306083 -0.507082 -12.389037 4 4 4
-2.312720 -0.507082 -12.389037 2 2 2
-2.320318 -0.507293 -12.394177 2 2 2
-2.326957 -0.507293 -12.394177 3 3 3
-2.333596 -0.507293 -12.394177 3 3 3
-2.340235 -0.507293 -12.394177 4 4 4
-2.347848 -0.507503 -12.399323 3 3 3
-2.354490 -0.507503 -12.399323 4 4 4
-2.362113 -0.507714 -12.404472 9 7 6
-2.368757 -0.507714 -12.404472 11 9 8
-2.375401 -0.507714 -12.404472 7 5 4
-2.383036 -0.507925 -12.409626 5 3 2
-2.389683 -0.507925 -12.409626 7 5 5
-2.396330 -0.507925 -12.409626 11 9 9
-2.402977 -0.507925 -12.409626 9 7 6
-2.409625 -0.507925 -12.409626 22 20 19
-2.416272 -0.507925 -12.409626 42 41 37
-2.423926 -0.508136 -12.414783 50 50 44
-2.432599 -0.508559 -12.425112 54 51 46
-2.443320 -0.509406 -12.445820 52 50 42
1.473305 -0.580401 -13.997173 75 63 53
1.465808 -0.580401 -13.997173 77 65 55
1.458994 -0.580673 -14.003736 71 59 47
1.450812 -0.580401 -13.997173 78 69 56
1.441288 -0.579586 -13.977524 73 65 52
1.433131 -0.579315 -13.970986 71 63 50
1.425647 -0.579315 -13.970986 72 63 53
1.418163 -0.579315 -13.970986 71 62 52
1.410680 -0.579315 -13.970986 66 55 47
1.403196 -0.579315 -13.970986 35 24 16
1.395060 -0.579044 -13.964455 27 13 7
1.387580 -0.579044 -13.964455 25 9 3
1.378810 -0.578503 -13.951410 30 9 7
1.370697 -0.578233 -13.944897 34 9 7
1.364501 -0.578774 -13.957930 40 9 6
1.357659 -0.579044 -13.964455 47 9 7
1.349548 -0.578774 -13.957930 52 9 6
1.341445 -0.578503 -13.951410 59 8 6
1.333972 -0.578503 -13.951410 68 9 7
1.326499 -0.578503 -13.951410 75 11 7
1.317794 -0.577963 -13.938390 80 9 6
1.306670 -0.576350 -13.899473 84 10 6
1.237236 -0.763140 -18.404171 202 20 21
1.228134 -0.763610 -18.415518 206 20 20
1.217519 -0.763140 -18.404171 203 17 17
0.893934 -0.583958 -14.082965 210 21 23
0.886390 -0.583958 -14.082965 211 20 23
0.878018 -0.583408 -14.069698 215 19 25
0.870072 -0.583133 -14.063074 217 21 27
0.862539 -0.583133 -14.063074 217 24 27
0.854604 -0.582859 -14.056456 220 30 31
0.847872 -0.583408 -14.069698 221 35 35
0.840336 -0.583408 -14.069698 229 48 46
0.832407 -0.583133 -14.063074 234 56 51
0.824486 -0.582859 -14.056456 230 54 48
0.816573 -0.582585 -14.049844 231 53 48
0.809047 -0.582585 -14.049844 225 47 42
0.801521 -0.582585 -14.049844 227 47 42
0.793995 -0.582585 -14.049844 224 41 39
0.786099 -0.582311 -14.043239 221 30 33
0.778943 -0.582585 -14.049844 223 27 33
0.771780 -0.582859 -14.056456 226 28 32
0.764971 -0.583408 -14.069698 225 27 31
0.758506 -0.584234 -14.089608 225 27 29
0.751313 -0.584509 -14.096257 228 30 32
0.743763 -0.584509 -14.096257 230 30 31
0.736212 -0.584509 -14.096257 231 31 32
0.727974 -0.583958 -14.082965 226 29 27
0.707135 -0.591770 -14.271366 232 33 31
0.700159 -0.592336 -14.285016 231 32 30
0.692176 -0.592053 -14.278188 234 32 31
0.682571 -0.590360 -14.237354 234 32 31
0.674944 -0.590360 -14.237354 234 35 32
0.667636 -0.590642 -14.244143 231 35 31
0.659692 -0.590360 -14.237354 232 36 34
0.652065 -0.590360 -14.237354 233 39 39
0.644439 -0.590360 -14.237354 234 39 42
0.636813 -0.590360 -14.237354 230 37 40
0.629186 -0.590360 -14.237354 232 39 42
0.621560 -0.590360 -14.237354 233 43 44
0.613934 -0.590360 -14.237354 229 48 46
0.606308 -0.590360 -14.237354 228 53 50
0.598681 -0.590360 -14.237354 224 58 53
0.591055 -0.590360 -14.237354 211 61 55
0.583429 -0.590360 -14.237354 197 72 64
0.575802 -0.590360 -14.237354 167 74 65
0.568447 -0.590642 -14.244143 122 74 62
0.560817 -0.590642 -14.244143 105 79 67
0.552923 -0.590360 -14.237354 103 78 68
0.545297 -0.590360 -14.237354 95 74 66
0.537415 -0.590079 -14.230571 94 77 68
0.529792 -0.590079 -14.230571 91 77 65
0.521672 -0.589517 -14.217025 84 73 59
0.513812 -0.589237 -14.210261 85 72 56
0.506924 -0.590079 -14.230571 87 71 58
0.499301 -0.590079 -14.230571 89 73 60
0.491444 -0.589798 -14.223795 86 73 59
-0.292933 -0.559935 -13.503603 67 54 46
-0.329157 -0.572619 -13.809509 68 57 49
-0.734903 -0.566077 -13.651723 72 60 50
-0.741876 -0.565818 -13.645486 75 60 51
-0.748843 -0.565560 -13.639256 74 59 50
-0.756840 -0.566077 -13.651723 73 58 49
-0.763804 -0.565818 -13.645486 73 61 51
-0.771113 -0.565818 -13.645486 70 61 51
-0.778422 -0.565818 -13.645486 70 64 53
-0.786091 -0.566077 -13.651723 72 61 53
-0.793403 -0.566077 -13.651723 74 61 53
-0.800716 -0.566077 -13.651723 77 63 57
-0.808398 -0.566335 -13.657965 64 52 46
-0.815714 -0.566335 -13.657965 33 27 22
-0.821903 -0.565560 -13.639256 14 8 3
-0.828452 -0.565044 -13.626811 20 5 3
-0.834229 -0.564014 -13.601990 26 2 2
-0.841515 -0.564014 -13.601990 40 9 10
-0.849188 -0.564271 -13.608186 38 10 10
-0.856477 -0.564271 -13.608186 20 2 1
-0.863766 -0.564271 -13.608186 14 2 0
-0.871055 -0.564271 -13.608186 11 6 3
-0.879146 -0.564786 -13.620597 5 4 0
-0.885231 -0.564014 -13.601990 4 2 1
-0.890894 -0.562989 -13.577258 7 5 4
-0.898575 -0.563245 -13.583433 7 8 6
-0.906263 -0.563501 -13.589613 6 7 5
-0.913958 -0.563758 -13.595798 5 5 5
-0.921661 -0.564014 -13.601990 8 6 6
-0.928947 -0.564014 -13.601990 8 6 6
-0.935381 -0.563501 -13.589613 6 1 2
-0.942231 -0.563245 -13.583433 9 4 3
-0.949507 -0.563245 -13.583433 13 5 5
-0.958091 -0.564014 -13.601990 19 11 11
-0.967138 -0.565044 -13.626811 24 16 16
-0.974437 -0.565044 -13.626811 20 13 10
-0.980842 -0.564528 -13.614388 14 7 4
-0.988585 -0.564786 -13.620597 12 4 4
-0.995881 -0.564786 -13.620597 14 6 6
-1.553819 -0.533409 -12.863897 0 4 3
-1.559366 -0.532950 -12.852826 0 4 3
-1.564904 -0.532492 -12.841775 0 5 4
-1.572459 -0.532721 -12.847299 0 5 4
-1.580020 -0.532950 -12.852826 1 3 3
-1.586222 -0.532721 -12.847299 0 1 1
-1.593789 -0.532950 -12.852826 2 2 2
-1.601363 -0.533179 -12.858359 4 4 4
-1.608251 -0.533179 -12.858359 4 4 4
-1.615139 -0.533179 -12.858359 2 2 2
-1.621328 -0.532950 -12.852826 2 3 1
-1.628914 -0.533179 -12.858359 4 5 3
-1.636506 -0.533409 -12.863897 4 5 3
-1.642689 -0.533179 -12.858359 3 4 2
-1.648867 -0.532950 -12.852826 4 4 4
-1.655039 -0.532721 -12.847299 3 3 3
-1.661207 -0.532492 -12.841775 2 2 2
-1.668085 -0.532492 -12.841775 2 2 2
-1.674244 -0.532263 -12.836256 2 2 2
-1.680398 -0.532034 -12.830743 3 3 3
-1.687996 -0.532263 -12.836256 7 6 8
-1.694872 -0.532263 -12.836256 10 10 10
-1.698828 -0.531349 -12.814229 10 8 8
-1.702041 -0.530212 -12.786801 14 10 9
-1.705969 -0.529306 -12.764944 11 9 8
-1.715739 -0.530212 -12.786801 12 10 9
-1.721115 -0.529759 -12.775864 10 8 7
-1.724271 -0.528628 -12.748600 13 11 10
-1.729623 -0.528177 -12.737726 12 10 9
-1.734967 -0.527727 -12.726872 13 11 10
-1.741784 -0.527727 -12.726872 10 8 8
-1.748601 -0.527727 -12.726872 10 8 8
-1.754671 -0.527502 -12.721452 12 10 10
-1.759986 -0.527053 -12.710625 12 10 10
-1.766043 -0.526829 -12.705218 10 8 8
-1.770589 -0.526158 -12.689027 11 9 9
-1.774371 -0.525265 -12.667501 13 11 11
-1.780401 -0.525043 -12.662131 13 11 11
-1.789460 -0.525711 -12.678255 11 9 8
-1.797014 -0.525934 -12.683639 12 10 9
-1.803042 -0.525711 -12.678255 12 10 9
-1.809065 -0.525488 -12.672876 12 10 9
-1.815854 -0.525488 -12.672876 11 9 8
-1.821869 -0.525265 -12.667501 9 7 6
-1.825557 -0.524376 -12.646049 9 7 6
-1.824607 -0.522165 -12.592735 10 8 7
-1.859591 -0.520629 -12.555682 3 4 2
-1.865532 -0.520410 -12.550407 1 4 2
-1.883726 -0.521725 -12.582127 1 3 3
-1.890466 -0.521725 -12.582127 1 3 3
-1.898005 -0.521945 -12.587429 1 3 3
-1.902343 -0.521286 -12.571536 1 3 3
-1.909077 -0.521286 -12.571536 1 3 3
-1.917425 -0.521725 -12.582127 1 3 3
-1.929040 -0.523047 -12.614007 3 3 3
-1.939893 -0.524154 -12.640697 2 2 2
-1.946664 -0.524154 -12.640697 4 4 4
-1.951783 -0.523711 -12.630008 3 3 3
-1.956067 -0.523047 -12.614007 2 2 2
-1.960340 -0.522385 -12.598046 2 2 2
-1.967919 -0.522606 -12.603362 3 3 3
-1.976337 -0.523047 -12.614007 3 3 3
-2.202644 -0.514359 -12.404472 4 4 4
-2.207455 -0.513932 -12.394177 5 5 5
-2.215013 -0.514145 -12.399323 5 5 5
-2.221655 -0.514145 -12.399323 6 6 6
-2.228297 -0.514145 -12.399323 7 7 7
-2.234938 -0.514145 -12.399323 5 5 5
-2.242511 -0.514359 -12.404472 5 5 5
-2.248222 -0.514145 -12.399323 6 6 6
-2.255800 -0.514359 -12.404472 5 5 5
-2.261506 -0.514145 -12.399323 3 3 3
-2.267206 -0.513932 -12.394177 2 2 2
-2.272902 -0.513719 -12.389037 2 2 2
-2.278593 -0.513506 -12.383901 3 3 3
-2.286175 -0.513719 -12.389037 2 2 2
-2.292811 -0.513719 -12.389037 3 3 3
-2.299447 -0.513719 -12.389037 7 7 7
-2.306083 -0.513719 -12.389037 9 9 9
-2.312720 -0.513719 -12.389037 8 8 8
-2.320318 -0.513932 -12.394177 4 4 4
-2.326957 -0.513932 -12.394177 3 3 3
-2.333596 -0.513932 -12.394177 3 3 3
-2.340235 -0.513932 -12.394177 3 3 3
-2.346874 -0.513932 -12.394177 3 4 2
-2.354490 -0.514145 -12.399323 4 5 3
-2.362113 -0.514359 -12.404472 8 6 5
-2.369741 -0.514572 -12.409626 8 6 5
-2.376388 -0.514572 -12.409626 5 3 2
-2.383036 -0.514572 -12.409626 5 3 2
-2.390676 -0.514786 -12.414783 11 7 6
-2.397326 -0.514786 -12.414783 6 2 1
-2.403976 -0.514786 -12.414783 5 1 0
-2.410626 -0.514786 -12.414783 20 16 15
-2.416272 -0.514572 -12.409626 43 40 36
-2.423926 -0.514786 -12.414783 55 52 47
-2.432599 -0.515214 -12.425112 58 54 49
-2.443320 -0.516073 -12.445820 58 55 47
1.473996 -0.588174 -14.003736 56 45 37
1.466495 -0.588174 -14.003736 56 45 37
1.458994 -0.588174 -14.003736 57 48 38
1.450812 -0.587898 -13.997173 56 50 39
1.441963 -0.587348 -13.984068 53 47 36
1.433131 -0.586799 -13.970986 51 47 36
1.425647 -0.586799 -13.970986 56 49 40
1.418163 -0.586799 -13.970986 58 49 40
1.410680 -0.586799 -13.970986 59 50 41
1.403196 -0.586799 -13.970986 35 23 17
1.395060 -0.586524 -13.964455 26 14 8
1.386931 -0.586250 -13.957930 27 13 7
1.378167 -0.585703 -13.944897 30 11 8
1.370697 -0.585703 -13.944897 31 10 8
1.364501 -0.586250 -13.957930 38 10 9
1.357025 -0.586250 -13.957930 42 9 6
1.349548 -0.586250 -13.957930 46 7 5
1.341445 -0.585976 -13.951410 54 6 4
1.333349 -0.585703 -13.944897 62 6 5
1.326499 -0.585976 -13.951410 69 8 6
1.295607 -0.582170 -13.860774 83 6 3
1.650538 -0.921127 -21.930962 177 14 15
1.238762 -0.773952 -18.426878 199 14 16
1.228134 -0.773474 -18.415518 203 16 18
1.217519 -0.772998 -18.404171 206 17 18
0.893934 -0.591502 -14.082965 210 21 23
0.886390 -0.591502 -14.082965 213 22 25
0.878018 -0.590945 -14.069698 216 23 26
0.870482 -0.590945 -14.069698 216 23 26
0.862945 -0.590945 -14.069698 218 25 28
0.855006 -0.590666 -14.063074 219 29 30
0.847872 -0.590945 -14.069698 220 34 34
0.840336 -0.590945 -14.069698 225 44 42
0.832407 -0.590666 -14.063074 223 44 42
0.824486 -0.590388 -14.056456 227 49 44
0.816957 -0.590388 -14.056456 226 47 45
0.809047 -0.590111 -14.049844 228 47 45
0.801521 -0.590111 -14.049844 225 42 40
0.793995 -0.590111 -14.049844 224 36 35
0.786469 -0.590111 -14.049844 227 32 35
0.779310 -0.590388 -14.056456 225 27 31
0.771780 -0.590388 -14.056456 224 26 30
0.765331 -0.591223 -14.076328 221 24 26
0.759222 -0.592340 -14.102913 221 23 25
0.751668 -0.592340 -14.102913 225 27 29
0.744114 -0.592340 -14.102913 229 29 30
0.736560 -0.592340 -14.102913 230 30 31
0.728318 -0.591781 -14.089608 228 28 29
0.717178 -0.601426 -14.319257 236 36 37
0.707473 -0.599701 -14.278188 232 32 33
0.700159 -0.599988 -14.285016 233 33 34
0.692176 -0.599701 -14.278188 231 31 32
0.682571 -0.597986 -14.237354 229 30 28
0.674944 -0.597986 -14.237354 234 35 32
0.667318 -0.597986 -14.237354 231 35 31
0.659377 -0.597701 -14.230571 230 34 32
0.652065 -0.597986 -14.237354 231 37 37
0.644439 -0.597986 -14.237354 234 42 42
0.636813 -0.597986 -14.237354 235 45 46
0.629186 -0.597986 -14.237354 233 43 44
0.621560 -0.597986 -14.237354 227 41 41
0.613934 -0.597986 -14.237354 228 49 47
0.606308 -0.597986 -14.237354 226 56 52
0.598396 -0.597701 -14.230571 222 63 59
0.590773 -0.597701 -14.230571 206 68 62
0.583429 -0.597986 -14.237354 191 80 72
0.575802 -0.597986 -14.237354 153 74 65
0.568176 -0.597986 -14.237354 112 72 60
0.560550 -0.597986 -14.237354 99 77 65
0.552923 -0.597986 -14.237354 93 71 60
0.545037 -0.597701 -14.230571 86 66 55
0.537415 -0.597701 -14.230571 86 68 57
0.529792 -0.597701 -14.230571 81 68 54
0.521672 -0.597133 -14.217025 80 67 53
0.513812 -0.596848 -14.210261 84 71 55
0.506924 -0.597701 -14.230571 86 70 54
0.499301 -0.597701 -14.230571 82 66 50
0.491444 -0.597417 -14.223795 82 65 52
-0.249195 -0.566400 -13.485313 72 61 53
-0.256187 -0.565889 -13.473147 74 63 55
-0.510864 -0.593461 -14.129598 80 63 54
-0.517698 -0.592619 -14.109574 83 66 57
-0.734903 -0.573389 -13.651723 80 65 56
-0.741876 -0.573127 -13.645486 82 67 58
-0.748843 -0.572865 -13.639256 81 66 57
-0.756840 -0.573389 -13.651723 81 67 55
-0.763804 -0.573127 -13.645486 79 67 55
-0.771113 -0.573127 -13.645486 73 63 53
-0.778422 -0.573127 -13.645486 77 68 58
-0.786091 -0.573389 -13.651723 75 64 56
-0.793403 -0.573389 -13.651723 73 60 52
-0.800716 -0.573389 -13.651723 78 64 58
-0.808029 -0.573389 -13.651723 65 53 47
-0.815714 -0.573651 -13.657965 31 20 16
-0.822278 -0.573127 -13.645486 17 5 1
-0.828830 -0.572604 -13.633030 29 8 7
-0.834609 -0.571561 -13.608186 40 12 12
-0.841515 -0.571300 -13.601990 56 24 25
-0.848801 -0.571300 -13.601990 50 19 20
-0.856087 -0.571300 -13.601990 25 4 3
-0.863373 -0.571300 -13.601990 17 4 2
-0.870659 -0.571300 -13.601990 15 8 5
-0.878745 -0.571821 -13.614388 12 9 5
-0.885231 -0.571300 -13.601990 9 7 6
-0.890489 -0.570002 -13.571090 8 6 5
-0.898167 -0.570262 -13.577258 8 6 5
-0.905851 -0.570521 -13.583433 6 7 5
-0.913543 -0.570780 -13.589613 8 9 7
-0.921241 -0.571040 -13.595798 11 12 10
-0.928524 -0.571040 -13.595798 8 6 6
-0.934955 -0.570521 -13.583433 5 3 2
-0.957654 -0.571040 -13.595798 10 6 5
-0.966697 -0.572082 -13.620597 16 12 11
-0.973993 -0.572082 -13.620597 15 12 8
-0.980842 -0.571821 -13.614388 11 6 3
-0.988134 -0.571821 -13.614388 13 5 5
-0.995427 -0.571821 -13.614388 20 12 12
-1.558025 -0.539370 -12.841775 0 4 3
-1.564232 -0.539139 -12.836256 0 4 3
-1.578662 -0.539370 -12.841775 2 4 4
-1.584178 -0.538907 -12.830743 0 2 2
-1.599298 -0.539370 -12.841775 5 5 5
-1.606867 -0.539602 -12.847299 5 5 5
-1.613055 -0.539370 -12.841775 2 2 2
-1.619934 -0.539370 -12.841775 3 4 2
-1.626813 -0.539370 -12.841775 5 6 4
-1.634394 -0.539602 -12.847299 5 6 4
-1.641276 -0.539602 -12.847299 2 3 1
-1.647449 -0.539370 -12.841775 4 4 4
-1.653617 -0.539139 -12.836256 3 3 3
-1.659067 -0.538676 -12.825233 3 3 3
-1.665937 -0.538676 -12.825233 5 5 5
-1.671371 -0.538213 -12.814229 5 5 5
-1.677516 -0.537983 -12.808735 3 3 3
-1.685099 -0.538213 -12.814229 2 2 2
-1.692690 -0.538444 -12.819729 3 3 3
-1.695191 -0.537061 -12.786801 6 4 3
-1.697680 -0.535685 -12.754043 9 7 6
-1.703058 -0.535228 -12.743161 9 7 6
-1.716709 -0.535228 -12.743161 11 9 8
-1.723535 -0.535228 -12.743161 13 11 10
-1.728886 -0.534772 -12.732297 12 10 9
-1.734967 -0.534544 -12.726872 12 10 9
-1.741042 -0.534317 -12.721452 13 11 11
-1.747856 -0.534317 -12.721452 10 8 8
-1.753177 -0.533862 -12.710625 12 10 10
-1.757742 -0.533181 -12.694419 15 13 12
-1.763792 -0.532955 -12.689027 11 9 9
-1.768335 -0.532276 -12.672876 9 7 6
-1.772867 -0.531600 -12.656767 11 9 9
-1.778893 -0.531375 -12.651405 12 10 9
-1.787184 -0.531825 -12.662131 13 11 10
-1.793966 -0.531825 -12.662131 12 10 9
-1.800749 -0.531825 -12.662131 12 10 9
-1.807531 -0.531825 -12.662131 12 10 9
-1.814314 -0.531825 -12.662131 11 9 8
-1.820325 -0.531600 -12.656767 9 10 8
-1.825557 -0.531150 -12.646049 12 10 9
-1.829234 -0.530252 -12.624670 12 13 11
-1.832897 -0.529357 -12.603362 11 12 10
-1.842759 -0.530252 -12.624670 9 10 8
-1.844065 -0.528687 -12.587429 7 8 6
-1.855986 -0.528242 -12.576829 8 9 7
-1.877778 -0.528687 -12.587429 6 7 5
-1.886110 -0.529133 -12.598046 1 3 3
-1.892858 -0.529133 -12.598046 1 3 3
-1.900408 -0.529357 -12.603362 1 3 3
-1.904748 -0.528687 -12.587429 2 4 4
-1.911490 -0.528687 -12.587429 3 5 5
-1.919851 -0.529133 -12.598046 2 4 4
-1.930671 -0.530252 -12.624670 3 3 3
-1.938252 -0.530476 -12.630008 2 2 2
-1.946664 -0.530925 -12.640697 4 4 4
-1.951783 -0.530476 -12.630008 3 3 3
-1.956893 -0.530028 -12.619336 2 2 2
-1.959514 -0.528910 -12.592735 2 2 2
-1.967919 -0.529357 -12.603362 3 3 3
-1.976337 -0.529804 -12.614007 3 3 3
-1.983094 -0.529804 -12.614007 3 3 3
-1.994061 -0.530925 -12.640697 3 3 3
-2.000832 -0.530925 -12.640697 4 2 2
-2.032217 -0.532051 -12.667501 4 2 2
-2.202402 -0.522522 -12.440637 1 1 1
-2.202644 -0.521003 -12.404472 1 1 1
-2.207455 -0.520571 -12.394177 2 2 2
-2.215933 -0.521003 -12.404472 3 3 3
-2.221655 -0.520787 -12.399323 4 4 4
-2.228297 -0.520787 -12.399323 5 5 5
-2.234938 -0.520787 -12.399323 3 3 3
-2.241580 -0.520787 -12.399323 3 3 3
-2.248222 -0.520787 -12.399323 5 5 5
-2.254864 -0.520787 -12.399323 4 4 4
-2.261506 -0.520787 -12.399323 2 2 2
-2.267206 -0.520571 -12.394177 2 2 2
-2.272902 -0.520355 -12.389037 4 4 4
-2.278593 -0.520139 -12.383901 2 2 2
-2.285227 -0.520139 -12.383901 1 1 1
-2.291860 -0.520139 -12.383901 4 4 4
-2.298494 -0.520139 -12.383901 12 12 12
-2.305127 -0.520139 -12.383901 17 17 17
-2.311761 -0.520139 -12.383901 15 15 15
-2.319356 -0.520355 -12.389037 8 8 8
-2.325992 -0.520355 -12.389037 4 4 4
-2.333596 -0.520571 -12.394177 4 4 4
-2.340235 -0.520571 -12.394177 4 4 4
-2.346874 -0.520571 -12.394177 4 5 3
-2.353513 -0.520571 -12.394177 5 6 4
-2.361132 -0.520787 -12.399323 8 6 5
-2.369741 -0.521220 -12.409626 6 4 3
-2.376388 -0.521220 -12.409626 5 3 2
-2.384026 -0.521436 -12.414783 7 5 4
-2.391670 -0.521653 -12.419946 8 4 3
-2.398323 -0.521653 -12.419946 9 5 4
-2.404976 -0.521653 -12.419946 10 6 5
-2.411629 -0.521653 -12.419946 16 12 11
-2.417276 -0.521436 -12.414783 35 32 28
-2.425943 -0.521870 -12.425112 56 52 47
-2.433611 -0.522087 -12.430283 62 59 51
-2.444338 -0.522958 -12.451008 66 60 53
1.473305 -0.595396 -13.997173 32 28 23
1.466495 -0.595675 -14.003736 32 26 21
1.458994 -0.595675 -14.003736 31 27 22
1.450812 -0.595396 -13.997173 34 30 25
1.441963 -0.594839 -13.984068 31 27 22
1.433131 -0.594282 -13.970986 31 27 22
1.425647 -0.594282 -13.970986 35 29 24
1.418163 -0.594282 -13.970986 38 32 27
1.410680 -0.594282 -13.970986 40 31 27
1.403196 -0.594282 -13.970986 37 26 22
1.395060 -0.594004 -13.964455 28 17 13
1.386931 -0.593727 -13.957930 23 11 7
1.377524 -0.592896 -13.938390 24 9 7
1.369419 -0.592619 -13.931889 28 9 6
1.363864 -0.593450 -13.951410 31 8 6
1.357025 -0.593727 -13.957930 38 8 7
1.349548 -0.593727 -13.957930 43 7 7
1.340819 -0.593172 -13.944897 50 6 5
1.332727 -0.592896 -13.938390 55 5 5
1.295607 -0.589594 -13.860774 80 6 4
1.285796 -0.588502 -13.835094 85 6 3
1.555441 -0.769579 -18.092047 122 9 12
1.532346 -0.767719 -18.048319 119 7 7
1.522679 -0.767719 -18.048319 126 12 12
1.674033 -0.932875 -21.930962 169 13 13
1.648118 -0.931507 -21.898804 176 13 14
0.901052 -0.598763 -14.076328 209 23 22
0.893934 -0.599045 -14.082965 211 22 23
0.886390 -0.599045 -14.082965 214 24 25
0.878018 -0.598481 -14.069698 214 22 23
0.870482 -0.598481 -14.069698 219 27 28
0.862945 -0.598481 -14.069698 215 25 26
0.855006 -0.598199 -14.063074 213 24 25
0.847872 -0.598481 -14.069698 221 37 37
0.840336 -0.598481 -14.069698 222 40 40
0.832407 -0.598199 -14.063074 223 44 43
0.824874 -0.598199 -14.063074 225 46 44
0.816957 -0.597918 -14.056456 228 44 44
0.809427 -0.597918 -14.056456 231 45 45
0.801898 -0.597918 -14.056456 231 42 43
0.794743 -0.598199 -14.063074 222 30 31
0.786839 -0.597918 -14.056456 226 27 31
0.779677 -0.598199 -14.063074 227 26 30
0.772144 -0.598199 -14.063074 227 28 32
0.765331 -0.598763 -14.076328 227 29 31
0.759940 -0.600461 -14.116242 223 25 27
0.752379 -0.600461 -14.116242 224 26 27
0.744465 -0.600177 -14.109574 230 29 32
0.737256 -0.600461 -14.116242 230 29 32
0.705113 -0.605324 -14.230571 232 31 34
0.699490 -0.607059 -14.271366 231 33 35
0.691515 -0.606770 -14.264550 231 33 35
0.682245 -0.605324 -14.230571 233 35 36
0.674302 -0.605036 -14.223795 234 35 32
0.666682 -0.605036 -14.223795 236 36 30
0.659063 -0.605036 -14.223795 238 39 36
0.651755 -0.605324 -14.230571 234 38 34
0.643825 -0.605036 -14.223795 229 39 34
0.636206 -0.605036 -14.223795 230 44 38
0.628887 -0.605324 -14.230571 227 42 38
0.621264 -0.605324 -14.230571 227 47 42
0.613641 -0.605324 -14.230571 228 51 48
0.606019 -0.605324 -14.230571 228 63 60
0.598396 -0.605324 -14.230571 211 67 62
0.590492 -0.605036 -14.223795 197 77 72
0.583151 -0.605324 -14.230571 168 80 73
0.575802 -0.605613 -14.237354 130 71 62
0.568176 -0.605613 -14.237354 102 67 57
0.560550 -0.605613 -14.237354 81 59 47
0.552660 -0.605324 -14.230571 88 66 55
0.545037 -0.605324 -14.230571 89 70 57
0.537415 -0.605324 -14.230571 87 70 57
0.529792 -0.605324 -14.230571 86 70 57
0.521424 -0.604460 -14.210261 88 72 59
0.513568 -0.604173 -14.203504 92 75 62
0.506682 -0.605036 -14.223795 95 76 63
0.499301 -0.605324 -14.230571 98 76 64
-0.663794 -0.680180 -15.990347 91 74 65
-0.734903 -0.580702 -13.651723 88 74 62
-0.741876 -0.580436 -13.645486 86 74 62
-0.748843 -0.580171 -13.639256 84 72 60
-0.756840 -0.580702 -13.651723 80 71 58
-0.763804 -0.580436 -13.645486 79 70 57
-0.771113 -0.580436 -13.645486 83 71 59
-0.778422 -0.580436 -13.645486 82 70 58
-0.786091 -0.580702 -13.651723 81 71 61
-0.793766 -0.580967 -13.657965 72 62 52
-0.800716 -0.580702 -13.651723 76 67 58
-0.808398 -0.580967 -13.657965 64 54 47
-0.815714 -0.580967 -13.657965 35 20 17
-0.822278 -0.580436 -13.645486 26 7 4
-0.828830 -0.579907 -13.633030 32 1 2
-0.834609 -0.578850 -13.608186 50 16 17
-0.841515 -0.578586 -13.601990 65 28 32
-0.848801 -0.578586 -13.601990 48 13 17
-0.856087 -0.578586 -13.601990 31 4 7
-0.863373 -0.578586 -13.601990 22 4 5
-0.870659 -0.578586 -13.601990 14 7 4
-0.878345 -0.578850 -13.608186 10 7 3
-0.884828 -0.578323 -13.595798 10 7 3
-0.890489 -0.577272 -13.571090 8 7 3
-0.897759 -0.577272 -13.571090 8 7 3
-0.905439 -0.577534 -13.577258 7 6 2
-0.913127 -0.577797 -13.583433 8 7 3
-0.920822 -0.578060 -13.589613 8 7 3
-0.928524 -0.578323 -13.595798 9 10 8
-0.934530 -0.577534 -13.577258 7 8 4
-0.957654 -0.578323 -13.595798 7 6 2
-0.966256 -0.579114 -13.614388 7 6 2
-0.973549 -0.579114 -13.614388 7 6 2
-0.980395 -0.578850 -13.608186 9 6 2
-0.987684 -0.578850 -13.608186 17 10 7
-0.994973 -0.578850 -13.608186 16 9 6
-1.005010 -0.580436 -13.645486 13 6 3
-1.012782 -0.580702 -13.651723 9 4 1
-1.523623 -0.572074 -13.448883 2 4 4
-1.557356 -0.546014 -12.836256 1 4 2
-1.562888 -0.545545 -12.825233 3 5 5
-1.568411 -0.545077 -12.814229 3 5 5
-1.575275 -0.545077 -12.814229 1 3 4
-1.580783 -0.544610 -12.803245 0 1 1
-1.586281 -0.544144 -12.792278 0 2 0
-1.597238 -0.545545 -12.825233 0 3 1
-1.617847 -0.545545 -12.825233 1 4 2
-1.624717 -0.545545 -12.825233 3 6 4
-1.631587 -0.545545 -12.825233 2 4 4
-1.644621 -0.545311 -12.819729 3 3 3
-1.648658 -0.544377 -12.797759 5 3 3
-1.650563 -0.542749 -12.759491 4 2 2
-1.669640 -0.542286 -12.748600 3 4 2
-1.676469 -0.542286 -12.748600 1 4 2
-1.684736 -0.542749 -12.759491 0 3 1
-1.690848 -0.542517 -12.754043 6 7 5
-1.695508 -0.541823 -12.737726 5 6 4
-1.701606 -0.541592 -12.732297 5 6 4
-1.708426 -0.541592 -12.732297 6 7 5
-1.715246 -0.541592 -12.732297 8 9 7
-1.722066 -0.541592 -12.732297 8 9 7
-1.727413 -0.541131 -12.721452 9 10 8
-1.734228 -0.541131 -12.721452 10 11 9
-1.740301 -0.540901 -12.716036 10 8 7
-1.747112 -0.540901 -12.716036 11 9 8
-1.752432 -0.540440 -12.705218 10 8 7
-1.756995 -0.539752 -12.689027 11 10 6
-1.763043 -0.539522 -12.683639 15 11 10
-1.769086 -0.539293 -12.678255 15 12 8
-1.773619 -0.538608 -12.662131 14 10 9
-1.781156 -0.538836 -12.667501 11 10 6
-1.789460 -0.539293 -12.678255 10 9 5
-1.797014 -0.539522 -12.683639 10 11 7
-1.803042 -0.539293 -12.678255 9 10 6
-1.809065 -0.539065 -12.672876 7 8 4
-1.815854 -0.539065 -12.672876 10 11 7
-1.822642 -0.539065 -12.672876 10 14 9
-1.827105 -0.538379 -12.656767 12 13 9
-1.833884 -0.538379 -12.656767 9 13 8
-1.841444 -0.538608 -12.662131 8 12 7
-1.848227 -0.538608 -12.662131 7 11 6
-1.859427 -0.537924 -12.646049 15 16 14
-1.859117 -0.535882 -12.598046 15 13 13
-1.880948 -0.536334 -12.608683 11 9 9
-1.888499 -0.536561 -12.614007 8 7 9
-1.896858 -0.537014 -12.624670 7 6 8
-1.903621 -0.537014 -12.624670 6 5 7
-1.907159 -0.536108 -12.603362 5 4 6
-1.913103 -0.535882 -12.598046 2 4 5
-1.922283 -0.536561 -12.614007 2 4 5
-1.932304 -0.537468 -12.635350 1 3 3
-1.939893 -0.537696 -12.640697 1 3 3
-1.946664 -0.537696 -12.640697 1 3 3
-1.952609 -0.537468 -12.635350 0 1 1
-1.957721 -0.537014 -12.624670 0 1 1
-1.959514 -0.535656 -12.592735 1 3 3
-1.967919 -0.536108 -12.603362 1 3 3
-1.976337 -0.536561 -12.614007 0 1 1
-1.980585 -0.535882 -12.598046 3 2 4
-1.989011 -0.536334 -12.608683 6 5 7
-1.999140 -0.537241 -12.630008 3 3 3
-2.006754 -0.537468 -12.635350 2 2 2
-2.032217 -0.538836 -12.667501 2 2 2
-2.202402 -0.529186 -12.440637 2 2 2
-2.202644 -0.527648 -12.404472 2 2 2
-2.207455 -0.527210 -12.394177 2 2 2
-2.215933 -0.527648 -12.404472 3 3 3
-2.221655 -0.527429 -12.399323 4 4 4
-2.228297 -0.527429 -12.399323 2 2 2
-2.234938 -0.527429 -12.399323 2 2 2
-2.241580 -0.527429 -12.399323 2 2 2
-2.248222 -0.527429 -12.399323 2 2 2
-2.255800 -0.527648 -12.404472 3 3 3
-2.261506 -0.527429 -12.399323 3 3 3
-2.267206 -0.527210 -12.394177 3 4 2
-2.272902 -0.526991 -12.389037 4 4 4
-2.279538 -0.526991 -12.389037 0 2 2
-2.286175 -0.526991 -12.389037 0 2 3
-2.291860 -0.526773 -12.383901 4 6 6
-2.298494 -0.526773 -12.383901 13 15 15
-2.305127 -0.526773 -12.383901 22 22 22
-2.311761 -0.526773 -12.383901 17 17 17
-2.320318 -0.527210 -12.394177 8 8 8
-2.326957 -0.527210 -12.394177 5 5 5
-2.333596 -0.527210 -12.394177 2 2 2
-2.340235 -0.527210 -12.394177 3 3 3
-2.346874 -0.527210 -12.394177 3 4 2
-2.354490 -0.527429 -12.399323 6 7 5
-2.363094 -0.527867 -12.409626 3 4 2
-2.371712 -0.528306 -12.419946 7 8 6
-2.378365 -0.528306 -12.419946 8 6 5
-2.386009 -0.528526 -12.425112 8 6 5
-2.394657 -0.528966 -12.435457 8 6 6
-2.402318 -0.529186 -12.440637 7 5 5
-2.408983 -0.529186 -12.440637 10 6 5
-2.414641 -0.528966 -12.435457 12 8 7
-2.422310 -0.529186 -12.440637 34 29 26
-2.429986 -0.529406 -12.445820 60 56 51
-2.437669 -0.529627 -12.451008 67 61 54
-2.446378 -0.530069 -12.461397 66 59 50
1.473305 -0.602894 -13.997173 24 21 17
1.465808 -0.602894 -13.997173 22 19 15
1.458310 -0.602894 -13.997173 23 20 16
1.450133 -0.602611 -13.990618 26 23 19
1.441963 -0.602329 -13.984068 26 23 19
1.433131 -0.601766 -13.970986 26 23 19
1.425647 -0.601766 -13.970986 26 21 18
1.418163 -0.601766 -13.970986 26 21 18
1.410680 -0.601766 -13.970986 29 23 18
1.403196 -0.601766 -13.970986 30 21 17
1.395060 -0.601485 -13.964455 26 17 13
1.386931 -0.601204 -13.957930 24 13 9
1.377524 -0.600362 -13.938390 21 8 6
1.368780 -0.599802 -13.925393 22 7 5
1.363864 -0.600923 -13.951410 27 8 5
1.357025 -0.601204 -13.957930 31 8 6
1.349548 -0.601204 -13.957930 38 8 7
1.340819 -0.600642 -13.944897 44 8 8
1.332727 -0.600362 -13.938390 52 8 9
1.558273 -0.780689 -18.124981 126 9 10
1.545750 -0.779270 -18.092047 128 11 12
1.533273 -0.777857 -18.059231 125 8 9
0.901477 -0.606589 -14.082965 212 24 23
0.894355 -0.606875 -14.089608 210 20 21
0.886390 -0.606589 -14.082965 214 22 22
0.878432 -0.606303 -14.076328 212 20 21
0.870892 -0.606303 -14.076328 217 25 25
0.862945 -0.606018 -14.069698 218 28 29
0.855409 -0.606018 -14.069698 219 33 33
0.848272 -0.606303 -14.076328 223 39 39
0.840732 -0.606303 -14.076328 230 48 48
0.832799 -0.606018 -14.069698 233 54 53
0.824874 -0.605732 -14.063074 233 54 53
0.817341 -0.605732 -14.063074 232 48 48
0.809808 -0.605732 -14.063074 230 43 45
0.802276 -0.605732 -14.063074 229 38 41
0.794743 -0.605732 -14.063074 225 30 33
0.787210 -0.605732 -14.063074 232 31 35
0.779677 -0.605732 -14.063074 233 30 33
0.772144 -0.605732 -14.063074 230 29 32
0.765331 -0.606303 -14.076328 226 28 29
0.758864 -0.607162 -14.096257 224 26 27
0.751668 -0.607448 -14.102913 224 26 27
0.743763 -0.607162 -14.096257 228 28 29
0.736560 -0.607448 -14.102913 229 28 31
0.699825 -0.614998 -14.278188 231 33 35
0.691846 -0.614704 -14.271366 230 33 35
0.681921 -0.612655 -14.223795 232 36 36
0.674302 -0.612655 -14.223795 234 38 34
0.666365 -0.612363 -14.217025 234 36 30
0.658750 -0.612363 -14.217025 236 40 34
0.651444 -0.612655 -14.223795 235 43 36
0.643825 -0.612655 -14.223795 232 46 38
0.636206 -0.612655 -14.223795 231 50 41
0.628587 -0.612655 -14.223795 229 50 43
0.621264 -0.612947 -14.230571 229 55 49
0.613934 -0.613239 -14.237354 232 62 58
0.606308 -0.613239 -14.237354 223 69 64
0.598681 -0.613239 -14.237354 211 78 74
0.590773 -0.612947 -14.230571 189 87 82
0.583429 -0.613239 -14.237354 154 82 74
0.576077 -0.613531 -14.244143 120 75 64
0.568447 -0.613531 -14.244143 105 76 67
0.560817 -0.613531 -14.244143 100 80 69
0.552923 -0.613239 -14.237354 102 80 68
0.545297 -0.613239 -14.237354 107 85 73
0.537415 -0.612947 -14.230571 110 91 78
0.530044 -0.613239 -14.237354 114 95 82
0.521672 -0.612363 -14.217025 114 95 82
0.513568 -0.611781 -14.203504 108 89 76
0.506682 -0.612655 -14.223795 106 84 72
0.499539 -0.613239 -14.237354 109 85 73
0.464663 -0.649786 -15.085843 95 76 68
-0.510864 -0.608598 -14.129598 89 69 58
-0.517943 -0.608022 -14.116242 88 70 59
-0.735575 -0.588552 -13.664212 86 72 60
-0.742555 -0.588283 -13.657965 87 75 63
-0.749528 -0.588014 -13.651723 87 75 63
-0.757186 -0.588283 -13.657965 86 77 64
-0.764153 -0.588014 -13.651723 91 79 67
-0.771466 -0.588014 -13.651723 94 80 68
-0.778778 -0.588014 -13.651723 91 77 65
-0.786450 -0.588283 -13.657965 89 77 67
-0.793766 -0.588283 -13.657965 79 69 59
-0.801082 -0.588283 -13.657965 78 71 62
-0.808768 -0.588552 -13.664212 66 57 48
-0.816087 -0.588552 -13.664212 31 17 11
-0.822654 -0.588014 -13.651723 26 5 3
-0.828830 -0.587209 -13.633030 35 4 5
-0.834609 -0.586139 -13.608186 47 13 14
-0.841515 -0.585872 -13.601990 55 20 24
-0.848801 -0.585872 -13.601990 41 10 13
-0.856087 -0.585872 -13.601990 26 2 4
-0.863373 -0.585872 -13.601990 19 1 2
-0.870659 -0.585872 -13.601990 11 2 0
-0.877945 -0.585872 -13.601990 9 4 1
-0.884425 -0.585339 -13.589613 10 5 2
-0.890489 -0.584541 -13.571090 9 6 2
-0.897759 -0.584541 -13.571090 9 6 2
-0.905028 -0.584541 -13.571090 10 7 3
-0.913127 -0.585073 -13.583433 11 8 4
-0.920822 -0.585339 -13.589613 9 8 4
-0.928101 -0.585339 -13.589613 8 7 3
-0.934106 -0.584541 -13.571090 6 5 1
-0.941375 -0.584541 -13.571090 5 4 0
-0.957219 -0.585339 -13.589613 8 7 3
-0.965816 -0.586139 -13.608186 8 7 3
-0.973549 -0.586406 -13.614388 8 7 3
-0.980395 -0.586139 -13.608186 9 6 2
-0.987684 -0.586139 -13.608186 11 6 3
-0.994973 -0.586139 -13.608186 12 5 2
-1.005010 -0.587746 -13.645486 9 4 1
-1.012782 -0.588014 -13.651723 8 5 1
-1.390207 -0.571811 -13.275541 2 2 2
-1.560878 -0.551705 -12.808735 5 5 5
-1.565724 -0.550996 -12.792278 3 5 5
-1.601357 -0.551468 -12.803245 1 4 2
-1.608905 -0.551705 -12.808735 0 3 1
-1.613690 -0.550996 -12.792278 1 4 2
-1.619156 -0.550524 -12.781330 2 5 3
-1.623917 -0.549819 -12.764944 2 4 4
-1.631452 -0.550054 -12.770401 0 2 2
-1.636893 -0.549584 -12.759491 3 3 3
-1.653865 -0.548412 -12.732297 4 2 2
-1.660685 -0.548412 -12.732297 3 4 2
-1.668216 -0.548646 -12.737726 5 6 4
-1.675039 -0.548646 -12.737726 3 6 4
-1.681862 -0.548646 -12.737726 3 6 4
-1.688685 -0.548646 -12.737726 2 5 3
-1.694063 -0.548179 -12.726872 2 5 3
-1.700156 -0.547945 -12.721452 2 5 3
-1.706971 -0.547945 -12.721452 4 7 5
-1.713055 -0.547712 -12.716036 6 7 5
-1.719867 -0.547712 -12.716036 6 7 5
-1.726678 -0.547712 -12.716036 6 7 5
-1.733490 -0.547712 -12.716036 7 8 6
-1.739560 -0.547479 -12.710625 12 10 9
-1.746369 -0.547479 -12.710625 14 12 11
-1.751687 -0.547013 -12.699817 14 12 11
-1.756249 -0.546317 -12.683639 13 12 8
-1.763043 -0.546317 -12.683639 14 13 9
-1.768335 -0.545853 -12.672876 13 12 8
-1.774371 -0.545621 -12.667501 13 10 6
-1.781912 -0.545853 -12.672876 11 10 6
-1.790219 -0.546317 -12.683639 11 10 6
-1.797014 -0.546317 -12.683639 10 11 7
-1.803042 -0.546085 -12.678255 8 9 5
-1.809833 -0.546085 -12.678255 8 9 5
-1.816624 -0.546085 -12.678255 9 13 8
-1.822642 -0.545853 -12.672876 9 13 8
-1.827879 -0.545390 -12.662131 9 13 8
-1.834662 -0.545390 -12.662131 9 13 8
-1.843007 -0.545853 -12.672876 12 16 11
-1.849795 -0.545853 -12.672876 11 15 10
-1.855796 -0.545621 -12.667501 13 14 12
-1.861792 -0.545390 -12.662131 13 14 12
-1.866201 -0.544697 -12.646049 14 12 12
-1.869019 -0.543547 -12.619336 11 9 9
-1.876571 -0.543777 -12.624670 13 8 9
-1.885724 -0.544467 -12.640697 13 11 11
-1.891695 -0.544237 -12.635350 10 9 11
-1.899266 -0.544467 -12.640697 10 9 11
-1.906038 -0.544467 -12.640697 9 8 10
-1.910383 -0.543777 -12.624670 8 7 9
-1.917956 -0.544007 -12.630008 5 7 8
-1.924722 -0.544007 -12.630008 5 7 7
-1.932304 -0.544237 -12.635350 5 7 7
-1.939893 -0.544467 -12.640697 5 7 7
-1.946664 -0.544467 -12.640697 6 8 8
-1.952609 -0.544237 -12.635350 4 6 6
-1.957721 -0.543777 -12.624670 3 5 5
-1.959514 -0.542401 -12.592735 3 5 5
-1.967919 -0.542859 -12.603362 4 4 4
-1.976337 -0.543317 -12.614007 1 1 1
-1.979750 -0.542401 -12.592735 0 0 0
-1.985658 -0.542173 -12.587429 2 2 2
-1.994923 -0.542859 -12.603362 4 4 4
-2.005906 -0.544007 -12.630008 4 4 4
-2.032217 -0.545621 -12.667501 2 2 2
-2.038138 -0.545390 -12.662131 4 4 4
-2.054815 -0.542630 -12.598046 3 3 3
-2.190342 -0.539445 -12.524096 3 3 3
-2.192455 -0.538316 -12.497895 2 3 1
-2.206077 -0.536744 -12.461397 2 2 2
-2.204475 -0.534736 -12.414783 3 3 3
-2.208371 -0.534070 -12.399323 4 4 4
-2.216854 -0.534514 -12.409626 4 4 4
-2.222578 -0.534292 -12.404472 4 4 4
-2.229222 -0.534292 -12.404472 2 2 2
-2.234938 -0.534070 -12.399323 2 2 2
-2.242511 -0.534292 -12.404472 3 3 3
-2.248222 -0.534070 -12.399323 3 3 3
-2.255800 -0.534292 -12.404472 3 3 3
-2.261506 -0.534070 -12.399323 3 3 3
-2.267206 -0.533849 -12.394177 3 4 2
-2.273845 -0.533849 -12.394177 3 3 3
-2.280484 -0.533849 -12.394177 0 1 1
-2.286175 -0.533627 -12.389037 0 1 2
-2.293762 -0.533849 -12.394177 2 4 4
-2.300401 -0.533849 -12.394177 8 10 10
-2.307040 -0.533849 -12.394177 15 15 15
-2.313679 -0.533849 -12.394177 11 11 11
-2.321281 -0.534070 -12.399323 5 5 5
-2.326957 -0.533849 -12.394177 3 3 3
-2.334565 -0.534070 -12.399323 3 3 3
-2.341207 -0.534070 -12.399323 4 4 4
-2.347848 -0.534070 -12.399323 3 4 2
-2.355468 -0.534292 -12.404472 4 5 3
-2.364076 -0.534736 -12.414783 5 6 4
-2.373686 -0.535404 -12.430283 8 9 7
-2.381335 -0.535627 -12.435457 10 8 7
-2.389986 -0.536073 -12.445820 10 8 7
-2.398652 -0.536520 -12.456201 7 5 5
-2.406327 -0.536744 -12.461397 7 5 5
-2.411996 -0.536520 -12.456201 8 4 3
-2.416653 -0.536073 -12.445820 9 5 4
-2.425341 -0.536520 -12.456201 32 27 24
-2.432013 -0.536520 -12.456201 61 57 52
-2.439703 -0.536744 -12.461397 74 65 61
-2.447398 -0.536968 -12.466598 73 66 57
1.467183 -0.610964 -14.010304 13 11 10
1.459678 -0.610964 -14.010304 15 13 12
1.451492 -0.610678 -14.003736 17 15 14
1.443315 -0.610391 -13.997173 17 16 12
1.434472 -0.609820 -13.984068 18 17 13
1.426982 -0.609820 -13.984068 21 18 14
1.418827 -0.609535 -13.977524 21 16 13
1.411340 -0.609535 -13.977524 22 17 14
1.403853 -0.609535 -13.977524 24 17 14
1.395712 -0.609250 -13.970986 24 15 12
1.387580 -0.608965 -13.964455 20 11 8
1.342699 -0.608965 -13.964455 35 7 6
1.334595 -0.608680 -13.957930 43 7 7
1.328360 -0.609250 -13.970986 48 7 5
1.319642 -0.608680 -13.957930 55 7 6
1.306670 -0.606131 -13.899473 61 7 6
0.894355 -0.614422 -14.089608 216 21 24
0.886390 -0.614133 -14.082965 218 23 25
0.878432 -0.613843 -14.076328 216 21 24
0.870892 -0.613843 -14.076328 219 24 26
0.863352 -0.613843 -14.076328 218 27 30
0.855409 -0.613554 -14.069698 223 34 36
0.848272 -0.613843 -14.076328 225 40 42
0.840732 -0.613843 -14.076328 231 49 50
0.832799 -0.613554 -14.069698 232 52 53
0.825263 -0.613554 -14.069698 235 55 56
0.817726 -0.613554 -14.069698 239 57 58
0.810190 -0.613554 -14.069698 237 52 56
0.802653 -0.613554 -14.069698 230 42 47
0.794743 -0.613265 -14.063074 225 32 35
0.787210 -0.613265 -14.063074 228 30 32
0.780044 -0.613554 -14.069698 231 29 30
0.772871 -0.613843 -14.076328 227 27 28
0.765692 -0.614133 -14.082965 228 29 27
0.759222 -0.615003 -14.102913 229 32 30
0.751668 -0.615003 -14.102913 230 33 31
0.744114 -0.615003 -14.102913 232 33 31
0.736560 -0.615003 -14.102913 233 33 34
0.728318 -0.614422 -14.089608 235 33 34
0.698489 -0.621458 -14.250939 234 36 37
0.690526 -0.621161 -14.244143 231 35 35
0.681272 -0.619684 -14.210261 231 38 35
0.673660 -0.619684 -14.210261 234 41 37
0.665731 -0.619389 -14.203504 229 40 32
0.658436 -0.619684 -14.210261 230 43 35
0.651134 -0.619979 -14.217025 231 45 37
0.643213 -0.619684 -14.210261 226 47 38
0.635601 -0.619684 -14.210261 225 50 40
0.628288 -0.619979 -14.217025 226 53 45
0.620968 -0.620274 -14.223795 228 60 53
0.613349 -0.620274 -14.223795 224 64 58
0.605730 -0.620274 -14.223795 216 72 67
0.598111 -0.620274 -14.223795 206 89 82
0.590492 -0.620274 -14.223795 178 88 81
0.582873 -0.620274 -14.223795 139 80 70
0.575254 -0.620274 -14.223795 120 85 72
0.567905 -0.620570 -14.230571 113 88 78
0.560283 -0.620570 -14.230571 111 91 80
0.552397 -0.620274 -14.223795 110 86 74
0.544778 -0.620274 -14.223795 114 88 76
0.537159 -0.620274 -14.223795 120 94 82
0.529540 -0.620274 -14.223795 129 103 91
0.521176 -0.619389 -14.203504 130 106 94
0.513324 -0.619095 -14.196754 121 97 85
0.505960 -0.619389 -14.203504 114 88 76
-0.742894 -0.595872 -13.664212 90 78 68
-0.750214 -0.595872 -13.664212 91 79 69
-0.757186 -0.595599 -13.657965 91 77 65
-0.764502 -0.595599 -13.657965 96 80 68
-0.771818 -0.595599 -13.657965 97 81 69
-0.779134 -0.595599 -13.657965 93 77 65
-0.786810 -0.595872 -13.664212 93 78 69
-0.794129 -0.595872 -13.664212 88 76 66
-0.801449 -0.595872 -13.664212 86 75 67
-0.809138 -0.596144 -13.670466 68 57 49
-0.816461 -0.596144 -13.670466 30 16 10
-0.823030 -0.595599 -13.657965 27 8 5
-0.829209 -0.594783 -13.639256 34 10 10
-0.834609 -0.593428 -13.608186 32 6 6
-0.841515 -0.593158 -13.601990 30 6 6
-0.848801 -0.593158 -13.601990 26 6 5
-0.855697 -0.592888 -13.595798 22 4 5
-0.862980 -0.592888 -13.595798 17 3 4
-0.870263 -0.592888 -13.595798 14 4 4
-0.877945 -0.593158 -13.601990 14 6 6
-0.884425 -0.592618 -13.589613 14 6 6
-0.890085 -0.591542 -13.564927 10 5 4
-0.897351 -0.591542 -13.564927 9 4 3
-0.904206 -0.591273 -13.558769 9 4 3
-0.912297 -0.591811 -13.571090 10 5 4
-0.920403 -0.592349 -13.583433 9 5 4
-0.927679 -0.592349 -13.583433 11 7 6
-0.933258 -0.591273 -13.558769 10 6 5
-0.940521 -0.591273 -13.558769 9 5 4
-0.948214 -0.591542 -13.564927 10 6 5
-0.964937 -0.592888 -13.595798 12 8 7
-0.973106 -0.593428 -13.608186 10 6 5
-0.979948 -0.593158 -13.601990 7 3 2
-0.987234 -0.593158 -13.601990 9 5 4
-0.994973 -0.593428 -13.608186 9 5 4
-1.004551 -0.594783 -13.639256 7 5 4
-1.012782 -0.595327 -13.651723 5 6 4
-1.136268 -0.576361 -13.216801 1 3 3
-1.143348 -0.576361 -13.216801 1 3 3
-1.148903 -0.575597 -13.199279 2 4 4
-1.245685 -0.574581 -13.175990 4 6 6
-1.252742 -0.574581 -13.175990 3 5 5
-1.258690 -0.574075 -13.164376 2 4 4
-1.272232 -0.573822 -13.158577 4 4 4
-1.276469 -0.572561 -13.129657 3 3 3
-1.632708 -0.554996 -12.726872 3 3 3
-1.638130 -0.554523 -12.716036 4 4 4
-1.643542 -0.554052 -12.705218 6 4 4
-1.651050 -0.554287 -12.710625 5 3 3
-1.657858 -0.554287 -12.710625 2 2 2
-1.666085 -0.554760 -12.721452 2 2 2
-1.672899 -0.554760 -12.721452 1 3 3
-1.680429 -0.554996 -12.726872 1 3 3
-1.687246 -0.554996 -12.726872 1 3 3
-1.692621 -0.554523 -12.716036 1 3 3
-1.698709 -0.554287 -12.710625 1 3 3
-1.705518 -0.554287 -12.710625 1 3 3
-1.712326 -0.554287 -12.710625 2 4 4
-1.719867 -0.554523 -12.716036 1 3 3
-1.725943 -0.554287 -12.710625 2 4 4
-1.733490 -0.554523 -12.716036 3 5 5
-1.740301 -0.554523 -12.716036 6 6 6
-1.746369 -0.554287 -12.710625 9 9 9
-1.750942 -0.553581 -12.694419 9 9 9
-1.756249 -0.553111 -12.683639 8 9 7
-1.762295 -0.552876 -12.678255 9 10 8
-1.768335 -0.552641 -12.672876 9 10 8
-1.774371 -0.552407 -12.667501 11 9 8
-1.781912 -0.552641 -12.672876 13 11 10
-1.790219 -0.553111 -12.683639 12 10 9
-1.797777 -0.553346 -12.689027 12 10 9
-1.803042 -0.552876 -12.678255 9 10 8
-1.809833 -0.552876 -12.678255 10 11 9
-1.816624 -0.552876 -12.678255 12 13 11
-1.822642 -0.552641 -12.672876 11 12 10
-1.827879 -0.552173 -12.662131 9 13 8
-1.834662 -0.552173 -12.662131 11 15 10
-1.842225 -0.552407 -12.667501 13 14 12
-1.849795 -0.552641 -12.672876 14 15 13
-1.855796 -0.552407 -12.667501 14 12 11
-1.861792 -0.552173 -12.662131 14 12 11
-1.865411 -0.551238 -12.640697 17 12 13
-1.869019 -0.550306 -12.619336 15 10 11
-1.878159 -0.551005 -12.635350 15 10 11
-1.886523 -0.551471 -12.646049 17 15 15
-1.891695 -0.551005 -12.635350 12 12 12
-1.900071 -0.551471 -12.646049 10 12 12
-1.906038 -0.551238 -12.640697 9 11 11
-1.910383 -0.550539 -12.624670 9 11 11
-1.917146 -0.550539 -12.624670 8 10 10
-1.921472 -0.549842 -12.608683 9 11 11
-1.925787 -0.549146 -12.592735 9 11 11
-1.943374 -0.550306 -12.619336 14 15 13
-1.950958 -0.550539 -12.624670 11 12 10
-1.956067 -0.550074 -12.614007 10 11 9
-1.957863 -0.548684 -12.582127 10 11 9
-2.027151 -0.552876 -12.678255 1 1 1
-2.033942 -0.552876 -12.678255 1 1 1
-2.190342 -0.546153 -12.524096 3 3 3
-2.192455 -0.545011 -12.497895 0 2 2
-2.206077 -0.543419 -12.461397 0 2 2
-2.203559 -0.541161 -12.409626 4 4 4
-2.207455 -0.540488 -12.394177 5 5 5
-2.216854 -0.541161 -12.409626 4 4 4
-2.222578 -0.540937 -12.404472 3 3 3
-2.229222 -0.540937 -12.404472 3 3 3
-2.235867 -0.540937 -12.404472 3 3 3
-2.242511 -0.540937 -12.404472 3 3 3
-2.249156 -0.540937 -12.404472 4 4 4
-2.255800 -0.540937 -12.404472 4 4 4
-2.262445 -0.540937 -12.404472 3 3 3
-2.268147 -0.540712 -12.399323 3 3 3
-2.274789 -0.540712 -12.399323 2 2 2
-2.281431 -0.540712 -12.399323 2 2 2
-2.287123 -0.540488 -12.394177 2 2 2
-2.293762 -0.540488 -12.394177 2 2 2
-2.301356 -0.540712 -12.399323 5 5 5
-2.307998 -0.540712 -12.399323 7 7 7
-2.314640 -0.540712 -12.399323 6 6 6
-2.321281 -0.540712 -12.399323 3 3 3
-2.327923 -0.540712 -12.399323 2 2 2
-2.334565 -0.540712 -12.399323 1 1 1
-2.341207 -0.540712 -12.399323 2 2 2
-2.347848 -0.540712 -12.399323 1 1 1
-2.355468 -0.540937 -12.404472 1 1 1
-2.366043 -0.541837 -12.425112 8 9 7
-2.375663 -0.542514 -12.440637 8 9 7
-2.382327 -0.542514 -12.440637 5 6 4
-2.391979 -0.543192 -12.456201 4 5 3
-2.399652 -0.543419 -12.461397 7 7 7
-2.406327 -0.543419 -12.461397 10 10 10
-2.413002 -0.543419 -12.461397 10 8 7
-2.418668 -0.543192 -12.456201 11 7 6
-2.426353 -0.543419 -12.461397 33 28 25
-2.433028 -0.543419 -12.461397 60 56 51
-2.440721 -0.543646 -12.466598 74 65 61
-2.448420 -0.543873 -12.471804 77 70 61
1.468560 -0.619049 -14.023459 10 8 7
1.461048 -0.619049 -14.023459 11 9 8
1.453537 -0.619049 -14.023459 12 10 9
1.445346 -0.618759 -14.016879 11 10 6
1.435817 -0.617889 -13.997173 14 13 9
1.427650 -0.617600 -13.990618 18 15 11
1.420156 -0.617600 -13.990618 18 15 11
1.412662 -0.617600 -13.990618 20 15 12
1.405168 -0.617600 -13.990618 23 16 13
1.397019 -0.617311 -13.984068 24 15 12
1.388878 -0.617022 -13.977524 18 11 8
1.380745 -0.616733 -13.970986 14 9 6
1.373904 -0.617022 -13.977524 13 8 5
1.367697 -0.617600 -13.990618 17 8 5
1.360203 -0.617600 -13.990618 19 7 5
1.352075 -0.617311 -13.984068 24 6 5
1.343956 -0.617022 -13.977524 27 6 5
1.336468 -0.617022 -13.977524 34 6 5
0.893512 -0.621383 -14.076328 223 28 30
0.885555 -0.621091 -14.069698 223 28 30
0.878018 -0.621091 -14.069698 221 26 28
0.870482 -0.621091 -14.069698 221 26 28
0.862945 -0.621091 -14.069698 222 30 31
0.855409 -0.621091 -14.069698 223 34 35
0.848272 -0.621383 -14.076328 227 43 43
0.840336 -0.621091 -14.069698 235 53 53
0.832799 -0.621091 -14.069698 235 56 55
0.824874 -0.620798 -14.063074 234 55 54
0.817341 -0.620798 -14.063074 235 53 54
0.809808 -0.620798 -14.063074 231 46 48
0.802276 -0.620798 -14.063074 226 39 41
0.794743 -0.620798 -14.063074 223 33 34
0.787210 -0.620798 -14.063074 225 27 28
0.779677 -0.620798 -14.063074 234 35 33
0.772507 -0.621091 -14.069698 236 37 35
0.765692 -0.621676 -14.082965 232 35 33
0.759222 -0.622557 -14.102913 230 33 31
0.751668 -0.622557 -14.102913 227 30 28
0.744114 -0.622557 -14.102913 228 31 29
0.736560 -0.622557 -14.102913 234 37 35
0.697491 -0.628192 -14.230571 231 38 35
0.689868 -0.628192 -14.230571 227 36 33
0.681272 -0.627296 -14.210261 229 41 36
0.673340 -0.626997 -14.203504 227 44 35
0.665415 -0.626699 -14.196754 223 44 35
