ply
format ascii 1.0
element vertex 1279
property float x
property float y
property float z
property uchar red
property uchar green
property uchar blue
end_header
-0.867801 0.486986 -13.821717 103 85 74
-0.873692 0.487156 -13.826545 129 112 103
-0.879281 0.487156 -13.826545 170 155 146
-0.884869 0.487156 -13.826545 68 55 47
-0.890769 0.487327 -13.831376 87 77 70
-0.896047 0.487156 -13.826545 75 71 66
-0.901635 0.487156 -13.826545 4 4 0
-0.907224 0.487156 -13.826545 9 10 6
-0.912812 0.487156 -13.826545 4 7 5
-0.918401 0.487156 -13.826545 0 5 3
-0.923989 0.487156 -13.826545 2 5 3
-0.929578 0.487156 -13.826545 4 7 5
-0.935166 0.487156 -13.826545 1 6 4
-0.940755 0.487156 -13.826545 2 7 5
-0.952930 0.487667 -13.841048 2 7 5
-0.957186 0.486986 -13.821717 2 5 3
-0.962101 0.486647 -13.812072 4 7 5
-0.967009 0.486307 -13.802441 4 4 4
-0.971571 0.485799 -13.788017 4 4 4
-0.976464 0.485461 -13.778419 7 5 5
-0.982033 0.485461 -13.778419 7 5 5
-0.987259 0.485292 -13.773625 5 5 5
-0.992135 0.484954 -13.764047 6 6 6
-0.997699 0.484954 -13.764047 6 6 6
-1.003611 0.485123 -13.768834 7 7 7
-1.008825 0.484954 -13.764047 2 5 3
-1.013331 0.484449 -13.749704 1 4 2
-1.019597 0.484786 -13.759263 3 6 4
-1.025515 0.484954 -13.764047 5 8 6
-1.031437 0.485123 -13.768834 3 6 4
-1.037363 0.485292 -13.773625 0 3 1
-1.043293 0.485461 -13.778419 1 4 2
-1.048862 0.485461 -13.778419 6 9 7
-1.054798 0.485630 -13.783216 10 13 11
-1.060369 0.485630 -13.783216 13 16 14
-1.065940 0.485630 -13.783216 16 17 13
-1.071139 0.485461 -13.778419 16 17 13
-1.077083 0.485630 -13.783216 16 17 13
-1.083408 0.485968 -13.792822 16 17 13
-1.088983 0.485968 -13.792822 16 17 13
-1.094558 0.485968 -13.792822 15 16 12
4.269763 1.354351 -38.885460 25 25 19
4.254046 1.354351 -38.885460 26 23 18
4.219329 1.358354 -39.000393 20 20 14
4.203566 1.358354 -39.000393 25 25 19
4.183680 1.357017 -38.962006 21 21 15
4.167932 1.357017 -38.962006 20 17 13
4.144027 1.354351 -38.885460 20 15 12
4.120215 1.351695 -38.809216 19 12 9
4.088495 1.346415 -38.657616 18 11 8
4.057023 1.341176 -38.507198 20 11 8
4.025794 1.335978 -38.357944 19 10 7
3.963918 1.330819 -38.209843 17 7 7
3.944666 1.329536 -38.172997 17 7 7
1.151221 0.398938 -11.454108 23 7 8
0.899441 0.713259 -20.478737 152 11 14
0.891163 0.713259 -20.478737 149 8 11
0.220665 0.398938 -11.454108 188 9 12
0.216036 0.398938 -11.454108 188 9 12
0.211406 0.398938 -11.454108 188 9 12
0.206776 0.398938 -11.454108 190 11 14
0.202147 0.398938 -11.454108 184 7 10
0.197517 0.398938 -11.454108 187 9 14
0.192887 0.398938 -11.454108 189 14 18
0.188258 0.398938 -11.454108 190 15 19
0.183628 0.398938 -11.454108 192 17 21
0.178999 0.398938 -11.454108 186 11 15
0.174369 0.398938 -11.454108 187 12 15
0.169739 0.398938 -11.454108 182 10 12
0.165110 0.398938 -11.454108 183 11 13
0.160480 0.398938 -11.454108 179 8 10
0.155850 0.398938 -11.454108 173 7 8
0.151221 0.398938 -11.454108 168 5 7
0.146591 0.398938 -11.454108 159 5 6
0.141961 0.398938 -11.454108 158 12 14
0.137332 0.398938 -11.454108 134 14 15
0.132702 0.398938 -11.454108 87 13 9
0.128073 0.398938 -11.454108 60 20 15
0.123443 0.398938 -11.454108 36 20 14
0.118813 0.398938 -11.454108 26 22 17
0.114184 0.398938 -11.454108 25 22 17
0.109554 0.398938 -11.454108 22 22 16
0.104924 0.398938 -11.454108 21 23 17
0.100295 0.398938 -11.454108 21 23 17
-0.546066 0.483425 -13.879873 15 16 14
-0.551290 0.483086 -13.870147 20 21 19
-0.556506 0.482748 -13.860434 17 18 16
-0.562305 0.482917 -13.865289 25 26 24
-0.568307 0.483256 -13.875009 17 20 18
-0.574117 0.483425 -13.879873 15 18 16
-0.579727 0.483425 -13.879873 19 20 16
-0.585337 0.483425 -13.879873 22 23 19
-0.591154 0.483595 -13.884742 16 17 13
-0.596766 0.483595 -13.884742 20 21 17
-0.602167 0.483425 -13.879873 22 24 18
-0.607564 0.483256 -13.875009 21 23 17
-0.612958 0.483086 -13.870147 19 21 15
-0.618564 0.483086 -13.870147 17 19 13
-0.624170 0.483086 -13.870147 16 15 11
-0.629997 0.483256 -13.875009 14 13 9
-0.635605 0.483256 -13.875009 11 9 8
-0.641213 0.483256 -13.875009 8 6 5
-0.646821 0.483256 -13.875009 6 4 3
-0.652201 0.483086 -13.870147 4 4 4
-0.657807 0.483086 -13.870147 6 6 6
-0.663413 0.483086 -13.870147 5 7 8
-0.668785 0.482917 -13.865289 4 6 6
-0.674389 0.482917 -13.865289 6 8 8
-0.679755 0.482748 -13.860434 5 7 7
-0.685118 0.482579 -13.855582 3 5 5
-0.690476 0.482410 -13.850734 5 5 5
-0.695831 0.482242 -13.845890 3 3 3
-0.701427 0.482242 -13.845890 7 7 7
-0.706777 0.482073 -13.841048 5 5 5
-0.712122 0.481905 -13.836210 4 4 4
-0.717714 0.481905 -13.836210 5 5 5
-0.727374 0.480896 -13.807255 5 5 5
-0.732444 0.480561 -13.797629 2 4 5
-0.737250 0.480059 -13.783216 3 5 6
-0.744116 0.480896 -13.807255 5 4 6
-0.749697 0.480896 -13.807255 4 3 5
-0.755014 0.480728 -13.802441 5 4 6
-0.760858 0.480896 -13.807255 5 7 8
-0.766439 0.480896 -13.807255 4 6 7
-0.772020 0.480896 -13.807255 2 4 5
-0.777601 0.480896 -13.807255 2 4 4
-0.783181 0.480896 -13.807255 4 6 6
-0.789037 0.481064 -13.812072 9 12 10
-0.794343 0.480896 -13.807255 6 7 3
-0.799924 0.480896 -13.807255 19 19 13
-0.805504 0.480896 -13.807255 56 54 46
-0.811085 0.480896 -13.807255 65 62 54
-0.816666 0.480896 -13.807255 55 50 41
-0.822247 0.480896 -13.807255 75 68 59
-0.827827 0.480896 -13.807255 70 61 52
-0.833408 0.480896 -13.807255 64 55 46
-0.838404 0.480561 -13.797629 66 56 49
-0.846045 0.481736 -13.831376 76 65 57
-0.851041 0.481400 -13.821717 74 63 55
-0.856627 0.481400 -13.821717 76 63 55
-0.862214 0.481400 -13.821717 69 56 48
-0.867801 0.481400 -13.821717 68 55 47
-0.873387 0.481400 -13.821717 77 64 56
-0.878974 0.481400 -13.821717 81 70 62
-0.884869 0.481568 -13.826545 65 55 48
-0.890769 0.481736 -13.831376 96 90 85
-0.896047 0.481568 -13.826545 75 70 67
-0.901635 0.481568 -13.826545 6 5 1
-0.906907 0.481400 -13.821717 6 7 5
-0.912493 0.481400 -13.821717 6 8 8
-0.918401 0.481568 -13.826545 2 7 6
-0.923989 0.481568 -13.826545 3 6 4
-0.929578 0.481568 -13.826545 3 6 4
-0.935166 0.481568 -13.826545 3 6 4
-0.940755 0.481568 -13.826545 2 7 5
-0.952265 0.481736 -13.831376 1 6 4
-0.956518 0.481064 -13.812072 2 5 3
-0.976124 0.479725 -13.773625 7 5 5
-0.981691 0.479725 -13.773625 7 5 5
-0.986915 0.479558 -13.768834 5 5 5
-0.991790 0.479225 -13.759263 6 6 6
-0.997352 0.479225 -13.759263 7 7 7
-1.003262 0.479391 -13.764047 8 8 8
-1.008474 0.479225 -13.759263 2 5 3
-1.012980 0.478725 -13.744930 2 5 3
-1.019597 0.479225 -13.759263 4 7 5
-1.025515 0.479391 -13.764047 6 9 7
-1.031437 0.479558 -13.768834 4 7 5
-1.037363 0.479725 -13.773625 1 4 2
-1.043293 0.479892 -13.778419 1 4 2
-1.049227 0.480059 -13.783216 4 7 5
-1.054798 0.480059 -13.783216 9 12 10
-1.060369 0.480059 -13.783216 12 15 13
-1.065940 0.480059 -13.783216 17 18 14
-1.071512 0.480059 -13.783216 17 18 14
-1.077083 0.480059 -13.783216 17 18 14
-1.083408 0.480393 -13.792822 16 17 13
-1.088983 0.480393 -13.792822 16 17 13
-1.094558 0.480393 -13.792822 16 17 13
4.254046 1.338634 -38.885460 24 20 15
4.219329 1.342590 -39.000393 25 22 17
4.203566 1.342590 -39.000393 23 23 17
4.183680 1.341269 -38.962006 21 21 15
4.167932 1.341269 -38.962006 23 20 15
4.144027 1.338634 -38.885460 22 18 13
4.116179 1.334700 -38.771202 19 12 9
4.084507 1.329492 -38.619900 17 10 7
4.049145 1.323038 -38.432426 19 10 7
3.987059 1.317920 -38.283752 17 7 7
3.960096 1.314107 -38.172997 17 7 7
3.940866 1.312841 -38.136223 16 6 6
1.155850 0.394308 -11.454108 23 7 8
1.151221 0.394308 -11.454108 23 7 8
0.899441 0.704981 -20.478737 152 11 14
0.890703 0.704617 -20.468147 151 10 13
0.220665 0.394308 -11.454108 185 6 9
0.216036 0.394308 -11.454108 188 9 12
0.211406 0.394308 -11.454108 187 8 11
0.206776 0.394308 -11.454108 188 9 12
0.202147 0.394308 -11.454108 186 9 12
0.197517 0.394308 -11.454108 193 16 19
0.192887 0.394308 -11.454108 193 18 21
0.188258 0.394308 -11.454108 193 18 21
0.183628 0.394308 -11.454108 193 18 21
0.178999 0.394308 -11.454108 190 15 18
0.174369 0.394308 -11.454108 189 14 17
0.169739 0.394308 -11.454108 186 11 14
0.165110 0.394308 -11.454108 182 10 10
0.160480 0.394308 -11.454108 180 10 9
0.155850 0.394308 -11.454108 175 9 8
0.151221 0.394308 -11.454108 172 9 10
0.146591 0.394308 -11.454108 163 7 8
0.141961 0.394308 -11.454108 158 9 12
0.137332 0.394308 -11.454108 134 11 13
0.132702 0.394308 -11.454108 87 10 7
0.128073 0.394308 -11.454108 61 22 14
0.123443 0.394308 -11.454108 40 24 18
0.118813 0.394308 -11.454108 27 23 18
0.114184 0.394308 -11.454108 24 21 16
0.109554 0.394308 -11.454108 20 20 14
0.104924 0.394308 -11.454108 18 20 14
0.100295 0.394308 -11.454108 19 23 17
-0.545493 0.477313 -13.865289 17 18 14
-0.550904 0.477146 -13.860434 22 23 19
-0.562108 0.477146 -13.860434 14 18 13
-0.568307 0.477648 -13.875009 18 19 15
-0.573916 0.477648 -13.875009 17 18 14
-0.579727 0.477815 -13.879873 19 20 16
-0.585337 0.477815 -13.879873 22 23 19
-0.591154 0.477983 -13.884742 14 16 10
-0.596557 0.477815 -13.879873 18 20 14
-0.601956 0.477648 -13.875009 21 23 17
-0.607564 0.477648 -13.875009 21 23 17
-0.612958 0.477480 -13.870147 15 16 12
-0.618564 0.477480 -13.870147 14 15 11
-0.624389 0.477648 -13.875009 13 11 10
-0.629997 0.477648 -13.875009 10 8 7
-0.635828 0.477815 -13.879873 9 7 7
-0.641438 0.477815 -13.879873 9 7 7
-0.646821 0.477648 -13.875009 9 7 7
-0.652429 0.477648 -13.875009 5 5 5
-0.658038 0.477648 -13.875009 5 5 5
-0.663646 0.477648 -13.875009 4 6 6
-0.669019 0.477480 -13.870147 3 5 5
-0.674389 0.477313 -13.865289 5 7 7
-0.679755 0.477146 -13.860434 7 7 7
-0.685358 0.477146 -13.860434 5 5 5
-0.690718 0.476979 -13.855582 5 6 4
-0.695831 0.476645 -13.845890 3 4 2
-0.701427 0.476645 -13.845890 7 8 6
-0.706777 0.476479 -13.841048 5 6 4
-0.712122 0.476312 -13.836210 4 4 4
-0.728136 0.475813 -13.821717 5 5 5
-0.733466 0.475647 -13.816893 4 4 4
-0.737507 0.474653 -13.788017 4 4 4
-0.744116 0.475315 -13.807255 7 5 5
-0.749436 0.475150 -13.802441 4 4 4
-0.755014 0.475150 -13.802441 5 5 5
-0.760593 0.475150 -13.802441 6 6 6
-0.766172 0.475150 -13.802441 5 5 5
-0.772020 0.475315 -13.807255 2 4 4
-0.777330 0.475150 -13.802441 3 5 5
-0.783181 0.475315 -13.807255 6 8 8
-0.789037 0.475481 -13.812072 6 9 7
-0.794343 0.475315 -13.807255 8 9 5
-0.799924 0.475315 -13.807255 6 7 3
-0.805504 0.475315 -13.807255 11 11 5
-0.811085 0.475315 -13.807255 22 22 16
-0.816666 0.475315 -13.807255 20 18 10
-0.822247 0.475315 -13.807255 30 28 20
-0.827827 0.475315 -13.807255 41 38 30
-0.833408 0.475315 -13.807255 38 32 27
-0.838404 0.474984 -13.797629 41 35 30
-0.846045 0.476146 -13.831376 48 42 37
-0.851041 0.475813 -13.821717 54 48 43
-0.856627 0.475813 -13.821717 59 51 44
-0.862214 0.475813 -13.821717 55 47 40
-0.867801 0.475813 -13.821717 58 50 43
-0.873387 0.475813 -13.821717 63 55 48
-0.878974 0.475813 -13.821717 67 59 52
-0.884869 0.475979 -13.826545 64 58 53
-0.890769 0.476146 -13.831376 66 62 57
-0.896047 0.475979 -13.826545 36 33 29
-0.901635 0.475979 -13.826545 3 1 0
-0.906907 0.475813 -13.821717 7 7 7
-0.912493 0.475813 -13.821717 6 8 8
-0.918080 0.475813 -13.821717 2 4 4
-0.923989 0.475979 -13.826545 6 7 5
-0.929578 0.475979 -13.826545 3 6 4
-0.935166 0.475979 -13.826545 3 6 4
-0.940426 0.475813 -13.821717 4 7 5
-0.951600 0.475813 -13.821717 0 5 3
-0.975106 0.473663 -13.759263 6 4 4
-0.980668 0.473663 -13.759263 6 4 4
-0.986229 0.473663 -13.759263 6 4 4
-0.991101 0.473334 -13.749704 6 4 4
-0.996659 0.473334 -13.749704 4 4 4
-1.002913 0.473663 -13.759263 4 4 4
-1.008124 0.473499 -13.754481 4 5 3
-1.012277 0.472841 -13.735392 6 7 5
-1.019243 0.473499 -13.754481 7 8 6
-1.025159 0.473663 -13.759263 6 7 5
-1.031437 0.473993 -13.768834 4 5 3
-1.037363 0.474158 -13.773625 4 5 3
-1.043293 0.474323 -13.778419 3 4 2
-1.048862 0.474323 -13.778419 3 4 2
-1.054431 0.474323 -13.778419 7 8 6
-1.060369 0.474488 -13.783216 11 12 10
-1.065940 0.474488 -13.783216 16 17 15
-1.071512 0.474488 -13.783216 17 18 16
-1.077458 0.474653 -13.788017 16 17 13
-1.083408 0.474818 -13.792822 15 16 12
-1.088983 0.474818 -13.792822 16 17 13
-1.094558 0.474818 -13.792822 17 18 14
-1.100900 0.475150 -13.802441 19 19 13
4.254046 1.322916 -38.885460 22 18 13
4.226764 1.324217 -38.923695 27 24 19
4.215176 1.325521 -38.962006 29 26 21
4.203566 1.326826 -39.000393 22 22 16
4.183680 1.325521 -38.962006 23 23 17
4.163834 1.324217 -38.923695 27 23 18
4.139960 1.321618 -38.847301 24 20 15
4.116179 1.319029 -38.771202 21 14 11
4.084507 1.313882 -38.619900 19 12 9
4.053080 1.308774 -38.469776 20 11 8
4.025794 1.304970 -38.357944 18 9 6
4.006408 1.303707 -38.320812 18 8 8
3.987059 1.302446 -38.283752 17 7 7
3.960096 1.298678 -38.172997 17 7 7
3.944666 1.298678 -38.172997 15 5 5
1.155850 0.389679 -11.454108 22 6 7
1.151221 0.389679 -11.454108 22 6 7
1.146591 0.389679 -11.454108 20 4 5
0.898976 0.696344 -20.468147 155 14 17
0.890703 0.696344 -20.468147 159 18 21
0.220665 0.389679 -11.454108 185 6 9
0.216036 0.389679 -11.454108 190 11 14
0.211406 0.389679 -11.454108 187 8 11
0.206776 0.389679 -11.454108 186 7 10
0.202147 0.389679 -11.454108 188 11 14
0.197517 0.389679 -11.454108 192 15 18
0.192887 0.389679 -11.454108 190 15 18
0.188258 0.389679 -11.454108 188 13 16
0.183628 0.389679 -11.454108 186 11 14
0.178999 0.389679 -11.454108 185 10 13
0.174369 0.389679 -11.454108 184 9 12
0.169739 0.389679 -11.454108 181 7 7
0.165110 0.389679 -11.454108 177 5 5
0.160480 0.389679 -11.454108 182 10 10
0.155850 0.389679 -11.454108 177 9 8
0.151221 0.389679 -11.454108 173 10 11
0.146591 0.389679 -11.454108 165 9 10
0.141961 0.389679 -11.454108 159 10 13
0.137332 0.389679 -11.454108 134 12 12
0.132702 0.389679 -11.454108 87 10 7
0.128073 0.389679 -11.454108 59 17 10
0.123443 0.389679 -11.454108 36 20 14
0.118813 0.389679 -11.454108 24 21 16
0.114184 0.389679 -11.454108 21 21 15
0.109554 0.389679 -11.454108 19 21 15
0.104924 0.389679 -11.454108 18 22 16
0.100295 0.389679 -11.454108 20 24 18
-0.545301 0.471544 -13.860434 20 21 17
-0.550904 0.471544 -13.860434 20 21 17
-0.556311 0.471379 -13.855582 15 19 14
-0.562108 0.471544 -13.860434 13 17 12
-0.568108 0.471874 -13.870147 16 17 13
-0.573916 0.472040 -13.875009 17 18 14
-0.579524 0.472040 -13.875009 19 20 16
-0.585337 0.472205 -13.879873 21 22 18
-0.590947 0.472205 -13.879873 15 17 11
-0.596557 0.472205 -13.879873 17 19 13
-0.601956 0.472040 -13.875009 19 21 15
-0.607564 0.472040 -13.875009 19 21 15
-0.612958 0.471874 -13.870147 14 15 11
-0.618347 0.471709 -13.865289 12 13 9
-0.624389 0.472040 -13.875009 11 9 8
-0.630218 0.472205 -13.879873 8 6 5
-0.636051 0.472371 -13.884742 7 5 5
-0.641663 0.472371 -13.884742 9 7 7
-0.647048 0.472205 -13.879873 8 6 6
-0.652658 0.472205 -13.879873 5 5 5
-0.658038 0.472040 -13.875009 4 4 4
-0.663878 0.472205 -13.879873 2 4 4
-0.669254 0.472040 -13.875009 0 2 2
-0.674625 0.471874 -13.870147 3 5 5
-0.679755 0.471544 -13.860434 6 6 6
-0.685358 0.471544 -13.860434 5 5 5
-0.690718 0.471379 -13.855582 6 7 5
-0.695831 0.471049 -13.845890 5 6 4
-0.701182 0.470884 -13.841048 7 8 6
-0.706530 0.470720 -13.836210 5 6 4
-0.711376 0.470227 -13.821717 4 4 4
-0.728645 0.470555 -13.831376 6 6 6
-0.733979 0.470391 -13.826545 5 5 5
-0.737507 0.469080 -13.788017 4 4 4
-0.744116 0.469735 -13.807255 7 5 5
-0.749436 0.469571 -13.802441 6 4 4
-0.755014 0.469571 -13.802441 4 4 4
-0.760593 0.469571 -13.802441 4 4 4
-0.766172 0.469571 -13.802441 3 3 3
-0.771751 0.469571 -13.802441 3 3 3
-0.777330 0.469571 -13.802441 3 5 5
-0.782908 0.469571 -13.802441 5 7 7
-0.788762 0.469735 -13.807255 4 7 5
-0.794343 0.469735 -13.807255 5 8 6
-0.799924 0.469735 -13.807255 10 11 9
-0.805224 0.469571 -13.802441 3 4 0
-0.810802 0.469571 -13.802441 6 7 3
-0.816381 0.469571 -13.802441 8 10 4
-0.821960 0.469571 -13.802441 5 7 1
-0.827539 0.469571 -13.802441 8 8 2
-0.833118 0.469571 -13.802441 6 3 0
-0.838112 0.469244 -13.792822 8 5 1
-0.846045 0.470555 -13.831376 8 4 3
-0.851041 0.470227 -13.821717 8 5 1
-0.856627 0.470227 -13.821717 7 2 0
-0.862515 0.470391 -13.826545 8 4 0
-0.868104 0.470391 -13.826545 5 0 0
-0.873692 0.470391 -13.826545 6 2 0
-0.878974 0.470227 -13.821717 5 0 0
-0.885179 0.470555 -13.831376 5 0 0
-0.890769 0.470555 -13.831376 6 3 0
-0.896047 0.470391 -13.826545 4 2 1
-0.901635 0.470391 -13.826545 9 7 7
-0.906907 0.470227 -13.821717 4 4 4
-0.912493 0.470227 -13.821717 2 2 2
-0.918401 0.470391 -13.826545 5 5 5
-0.923989 0.470391 -13.826545 8 9 7
-0.929578 0.470391 -13.826545 6 7 5
-0.935166 0.470391 -13.826545 5 8 6
-0.940755 0.470391 -13.826545 5 8 6
-0.951932 0.470391 -13.826545 1 6 4
-0.981009 0.468265 -13.764047 6 4 4
-0.986229 0.468102 -13.759263 6 4 4
-0.991101 0.467777 -13.749704 6 4 4
-0.996659 0.467777 -13.749704 3 3 3
-1.002565 0.467939 -13.754481 2 2 2
-1.007774 0.467777 -13.749704 4 5 3
-1.011925 0.467128 -13.730627 6 7 5
-1.018889 0.467777 -13.749704 6 7 5
-1.025515 0.468265 -13.764047 4 5 3
-1.031437 0.468427 -13.768834 3 4 2
-1.037363 0.468590 -13.773625 5 6 4
-1.043293 0.468754 -13.778419 6 7 5
-1.049227 0.468917 -13.783216 4 5 3
-1.054798 0.468917 -13.783216 5 6 4
-1.060369 0.468917 -13.783216 8 9 7
-1.065940 0.468917 -13.783216 12 13 11
-1.071512 0.468917 -13.783216 14 15 13
-1.077458 0.469080 -13.788017 15 16 12
-1.083408 0.469244 -13.792822 15 16 12
-1.088983 0.469244 -13.792822 17 18 14
-1.094939 0.469407 -13.797629 18 19 15
-1.100900 0.469571 -13.802441 20 20 14
-1.106479 0.469571 -13.802441 19 16 11
4.269763 1.307199 -38.885460 23 20 15
4.249872 1.305916 -38.847301 22 19 14
4.222612 1.307199 -38.885460 27 24 19
4.211031 1.308485 -38.923695 26 23 18
4.199428 1.309772 -38.962006 22 22 16
4.179566 1.308485 -38.923695 24 24 18
4.159744 1.307199 -38.885460 28 24 19
4.135901 1.304636 -38.809216 24 20 15
4.108132 1.300810 -38.695404 21 14 11
4.080525 1.297007 -38.582260 20 13 10
4.053080 1.293225 -38.469776 22 13 10
4.025794 1.289466 -38.357944 18 9 6
4.006408 1.288218 -38.320812 15 7 7
3.987059 1.286972 -38.283752 15 7 7
3.963918 1.284487 -38.209843 15 5 5
1.155850 0.385049 -11.454108 19 6 4
1.151221 0.385049 -11.454108 19 6 4
0.898976 0.688071 -20.468147 152 13 16
0.890242 0.687715 -20.457571 153 12 15
0.882430 0.688071 -20.468147 155 15 16
0.220665 0.385049 -11.454108 193 12 16
0.216036 0.385049 -11.454108 193 14 17
0.211406 0.385049 -11.454108 187 8 11
0.206776 0.385049 -11.454108 185 6 9
0.202147 0.385049 -11.454108 182 5 8
0.197517 0.385049 -11.454108 191 15 15
0.192887 0.385049 -11.454108 189 15 15
0.188258 0.385049 -11.454108 188 14 14
0.183628 0.385049 -11.454108 186 12 12
0.178999 0.385049 -11.454108 184 10 10
0.174369 0.385049 -11.454108 183 9 9
0.169739 0.385049 -11.454108 183 9 9
0.165110 0.385049 -11.454108 180 8 8
0.160480 0.385049 -11.454108 179 7 7
0.155850 0.385049 -11.454108 173 5 4
0.151221 0.385049 -11.454108 169 5 6
0.146591 0.385049 -11.454108 166 7 9
0.141961 0.385049 -11.454108 160 9 12
0.137332 0.385049 -11.454108 135 11 11
0.132702 0.385049 -11.454108 89 10 7
0.128073 0.385049 -11.454108 55 13 6
0.123443 0.385049 -11.454108 33 17 11
0.118813 0.385049 -11.454108 23 20 15
0.114184 0.385049 -11.454108 22 22 16
0.109554 0.385049 -11.454108 21 23 17
0.104924 0.385049 -11.454108 21 25 19
0.100295 0.385049 -11.454108 21 25 19
-0.527571 0.465127 -13.836210 20 20 14
-0.533350 0.465290 -13.841048 18 20 14
-0.539322 0.465615 -13.850734 18 20 14
-0.550711 0.465778 -13.855582 13 17 11
-0.556311 0.465778 -13.855582 13 17 11
-0.561911 0.465778 -13.855582 15 19 13
-0.567909 0.466105 -13.865289 15 17 11
-0.573714 0.466268 -13.870147 17 19 13
-0.579321 0.466268 -13.870147 17 19 13
-0.585132 0.466431 -13.875009 20 22 16
-0.590947 0.466595 -13.879873 18 19 15
-0.596348 0.466431 -13.875009 19 20 16
-0.601956 0.466431 -13.875009 16 17 13
-0.607564 0.466431 -13.875009 16 17 13
-0.612958 0.466268 -13.870147 14 15 11
-0.618564 0.466268 -13.870147 10 11 7
-0.624389 0.466431 -13.875009 5 6 4
-0.630439 0.466759 -13.884742 4 5 3
-0.636274 0.466922 -13.889613 5 5 5
-0.641888 0.466922 -13.889613 5 5 5
-0.647275 0.466759 -13.884742 5 4 6
-0.652658 0.466595 -13.879873 5 4 6
-0.658268 0.466595 -13.879873 6 6 6
-0.664111 0.466759 -13.884742 5 5 5
-0.669488 0.466595 -13.879873 2 2 2
-0.674625 0.466268 -13.870147 5 5 5
-0.679993 0.466105 -13.865289 7 8 6
-0.685358 0.465941 -13.860434 6 7 5
-0.690718 0.465778 -13.855582 7 8 6
-0.695831 0.465453 -13.845890 6 7 5
-0.701182 0.465290 -13.841048 7 8 6
-0.706036 0.464802 -13.826545 7 8 6
-0.710880 0.464316 -13.812072 7 8 6
-0.728390 0.464802 -13.826545 5 5 5
-0.733722 0.464640 -13.821717 5 5 5
-0.737507 0.463507 -13.788017 4 4 4
-0.744116 0.464154 -13.807255 4 5 3
-0.749436 0.463992 -13.802441 5 6 4
-0.755014 0.463992 -13.802441 5 5 5
-0.760593 0.463992 -13.802441 4 4 4
-0.766172 0.463992 -13.802441 3 3 3
-0.771751 0.463992 -13.802441 4 4 4
-0.777330 0.463992 -13.802441 5 5 5
-0.782908 0.463992 -13.802441 5 5 5
-0.788762 0.464154 -13.807255 4 4 4
-0.794066 0.463992 -13.802441 3 4 2
-0.799645 0.463992 -13.802441 3 6 4
-0.805224 0.463992 -13.802441 3 6 4
-0.810802 0.463992 -13.802441 5 8 6
-0.816381 0.463992 -13.802441 3 7 2
-0.821960 0.463992 -13.802441 11 15 10
-0.827539 0.463992 -13.802441 5 8 6
-0.833118 0.463992 -13.802441 7 8 6
-0.838112 0.463669 -13.792822 6 4 3
-0.845750 0.464802 -13.826545 12 10 10
-0.851041 0.464640 -13.821717 9 7 6
-0.856627 0.464640 -13.821717 5 3 2
-0.862515 0.464802 -13.826545 11 10 6
-0.868104 0.464802 -13.826545 12 10 9
-0.873692 0.464802 -13.826545 9 8 4
-0.879281 0.464802 -13.826545 14 10 9
-0.885179 0.464965 -13.831376 15 11 10
-0.890769 0.464965 -13.831376 10 8 7
-0.896360 0.464965 -13.831376 3 1 0
-0.901635 0.464802 -13.826545 8 6 6
-0.906907 0.464640 -13.821717 7 5 5
-0.912493 0.464640 -13.821717 6 4 4
-0.918401 0.464802 -13.826545 7 7 7
-0.924312 0.464965 -13.831376 8 8 8
-0.929903 0.464965 -13.831376 6 6 6
-0.935493 0.464965 -13.831376 5 7 7
-0.940755 0.464802 -13.826545 6 8 8
-0.987259 0.463023 -13.773625 7 5 4
-0.991790 0.462540 -13.759263 7 5 4
-0.997352 0.462540 -13.759263 4 5 3
-1.003262 0.462701 -13.764047 3 4 2
-1.008474 0.462540 -13.759263 5 6 4
-1.012277 0.461738 -13.735392 5 6 4
-1.018535 0.462059 -13.744930 4 5 3
-1.025515 0.462701 -13.764047 3 4 2
-1.031437 0.462862 -13.768834 4 5 3
-1.037002 0.462862 -13.768834 6 7 5
-1.043293 0.463184 -13.778419 7 8 6
-1.049227 0.463346 -13.783216 7 8 6
-1.054798 0.463346 -13.783216 6 7 5
-1.060369 0.463346 -13.783216 6 7 5
-1.065940 0.463346 -13.783216 8 9 7
-1.071512 0.463346 -13.783216 11 12 10
-1.077458 0.463507 -13.788017 14 15 11
-1.083408 0.463669 -13.792822 16 17 13
-1.088604 0.463507 -13.788017 17 18 14
-1.094177 0.463507 -13.788017 18 19 15
-1.100133 0.463669 -13.792822 15 17 11
-1.105708 0.463669 -13.792822 16 16 10
-1.111670 0.463830 -13.797629 18 18 12
-1.117636 0.463992 -13.802441 17 17 11
-1.427328 0.476111 -14.162933 15 19 13
-1.473124 0.476111 -14.162933 17 19 13
4.269763 1.291482 -38.885460 24 21 16
4.249872 1.290215 -38.847301 25 22 17
4.234170 1.290215 -38.847301 26 23 18
4.222612 1.291482 -38.885460 25 22 17
4.211031 1.292752 -38.923695 19 19 13
4.199428 1.294024 -38.962006 20 20 14
4.179566 1.292752 -38.923695 23 23 17
4.159744 1.291482 -38.885460 27 23 18
4.135901 1.288950 -38.809216 22 18 13
4.108132 1.285170 -38.695404 19 12 9
4.080525 1.281412 -38.582260 20 13 10
4.057023 1.278919 -38.507198 22 13 10
4.029698 1.275198 -38.395149 18 9 6
4.010290 1.273962 -38.357944 16 8 8
3.990919 1.272729 -38.320812 17 9 9
3.963918 1.269043 -38.209843 15 5 5
3.948474 1.269043 -38.209843 11 1 1
1.155850 0.380419 -11.454108 18 5 3
0.906311 0.679096 -20.447002 151 12 15
0.897583 0.678745 -20.436447 151 12 15
0.889323 0.678745 -20.436447 156 17 20
0.881063 0.678745 -20.436447 156 16 17
0.873254 0.679096 -20.447002 158 15 17
0.220665 0.380419 -11.454108 190 9 13
0.216036 0.380419 -11.454108 187 8 11
0.211406 0.380419 -11.454108 185 6 9
0.206776 0.380419 -11.454108 188 9 12
0.202147 0.380419 -11.454108 187 8 9
0.197517 0.380419 -11.454108 187 11 11
0.192887 0.380419 -11.454108 187 14 12
0.188258 0.380419 -11.454108 189 15 15
0.183628 0.380419 -11.454108 187 13 13
0.178999 0.380419 -11.454108 185 11 11
0.174369 0.380419 -11.454108 183 9 9
0.169739 0.380419 -11.454108 183 9 9
0.165110 0.380419 -11.454108 182 10 10
0.160480 0.380419 -11.454108 179 7 7
0.155850 0.380419 -11.454108 175 7 6
0.151221 0.380419 -11.454108 173 9 10
0.146591 0.380419 -11.454108 170 11 13
0.141961 0.380419 -11.454108 161 10 13
0.137332 0.380419 -11.454108 134 10 10
0.132702 0.380419 -11.454108 93 14 11
0.128073 0.380419 -11.454108 59 17 10
0.123443 0.380419 -11.454108 39 23 17
0.118813 0.380419 -11.454108 24 24 18
0.114184 0.380419 -11.454108 22 22 16
0.109554 0.380419 -11.454108 19 21 15
0.104924 0.380419 -11.454108 18 22 16
0.100295 0.380419 -11.454108 19 23 17
-0.521614 0.459214 -13.826545 14 14 8
-0.527387 0.459374 -13.831376 20 20 14
-0.533164 0.459535 -13.836210 17 19 13
-0.539133 0.459856 -13.845890 18 20 14
-0.545111 0.460178 -13.855582 13 17 11
-0.550711 0.460178 -13.855582 16 20 14
-0.556117 0.460017 -13.850734 17 21 15
-0.561911 0.460178 -13.855582 16 20 14
-0.567710 0.460339 -13.860434 14 16 10
-0.573514 0.460500 -13.865289 16 18 12
-0.579321 0.460662 -13.870147 15 17 11
-0.584927 0.460662 -13.870147 19 21 15
-0.590740 0.460823 -13.875009 20 21 17
-0.596348 0.460823 -13.875009 20 21 17
-0.601956 0.460823 -13.875009 13 14 10
-0.607564 0.460823 -13.875009 12 13 9
-0.612958 0.460662 -13.870147 12 13 9
-0.618781 0.460823 -13.875009 5 6 2
-0.624827 0.461147 -13.884742 1 2 0
-0.630660 0.461308 -13.889613 3 4 2
-0.636721 0.461632 -13.899367 5 5 5
-0.642113 0.461470 -13.894488 5 5 5
-0.647502 0.461308 -13.889613 6 5 7
-0.653116 0.461308 -13.889613 8 7 9
-0.658730 0.461308 -13.889613 8 8 8
-0.664577 0.461470 -13.894488 7 7 7
-0.669723 0.461147 -13.884742 5 5 5
-0.675099 0.460985 -13.879873 7 7 7
-0.680232 0.460662 -13.870147 9 10 8
-0.685838 0.460662 -13.870147 8 9 7
-0.690960 0.460339 -13.860434 7 8 6
-0.705790 0.459053 -13.821717 9 10 8
-0.710632 0.458573 -13.807255 9 10 8
-0.715963 0.458413 -13.802441 5 6 4
-0.727628 0.458733 -13.812072 3 3 3
-0.732955 0.458573 -13.807255 4 4 4
-0.737507 0.457934 -13.788017 4 4 4
-0.743857 0.458413 -13.802441 3 4 2
-0.749174 0.458253 -13.797629 5 6 4
-0.754751 0.458253 -13.797629 6 6 6
-0.760328 0.458253 -13.797629 5 5 5
-0.765905 0.458253 -13.797629 4 4 4
-0.771482 0.458253 -13.797629 5 5 5
-0.777059 0.458253 -13.797629 5 5 5
-0.782908 0.458413 -13.802441 4 4 4
-0.788487 0.458413 -13.802441 4 4 4
-0.793789 0.458253 -13.797629 6 6 6
-0.799366 0.458253 -13.797629 9 10 8
-0.804662 0.458094 -13.792822 5 8 6
-0.810237 0.458094 -13.792822 4 7 5
-0.815812 0.458094 -13.792822 3 8 6
-0.821387 0.458094 -13.792822 2 7 5
-0.826962 0.458094 -13.792822 5 8 6
-0.832537 0.458094 -13.792822 3 5 5
-0.837820 0.457934 -13.788017 2 2 2
-0.845750 0.459214 -13.826545 1 1 1
-0.851041 0.459053 -13.821717 3 3 3
-0.856927 0.459214 -13.826545 3 4 2
-0.862515 0.459214 -13.826545 6 7 5
-0.868104 0.459214 -13.826545 0 1 0
-0.873692 0.459214 -13.826545 5 6 4
-0.879281 0.459214 -13.826545 6 7 5
-0.884869 0.459214 -13.826545 6 4 3
-0.890769 0.459374 -13.831376 6 4 3
-0.896360 0.459374 -13.831376 7 5 4
-0.901635 0.459214 -13.826545 8 6 6
-0.906907 0.459053 -13.821717 6 4 4
-0.912493 0.459053 -13.821717 6 4 4
-0.918401 0.459214 -13.826545 8 6 6
-0.924312 0.459374 -13.831376 7 5 5
-0.929903 0.459374 -13.831376 3 3 3
-0.935493 0.459374 -13.831376 5 5 5
-0.940755 0.459214 -13.826545 5 7 7
-0.992135 0.457138 -13.764047 9 7 6
-0.997352 0.456979 -13.759263 6 7 5
-1.003262 0.457138 -13.764047 5 6 4
-1.008474 0.456979 -13.759263 9 10 8
-1.012277 0.456186 -13.735392 6 7 5
-1.018182 0.456345 -13.740159 4 5 3
-1.025159 0.456979 -13.759263 4 5 3
-1.031078 0.457138 -13.764047 3 4 2
-1.037002 0.457297 -13.768834 3 4 2
-1.042930 0.457456 -13.773625 4 5 3
-1.048862 0.457615 -13.778419 5 6 4
-1.054431 0.457615 -13.778419 7 8 6
-1.060369 0.457775 -13.783216 5 6 4
-1.065570 0.457615 -13.778419 5 6 4
-1.071139 0.457615 -13.778419 8 9 7
-1.077083 0.457775 -13.783216 13 14 10
-1.083031 0.457934 -13.788017 16 17 13
-1.088604 0.457934 -13.788017 17 18 14
-1.093796 0.457775 -13.783216 17 18 14
-1.099750 0.457934 -13.788017 15 19 13
-1.105323 0.457934 -13.788017 14 18 12
-1.110896 0.457934 -13.788017 18 20 14
-1.116858 0.458094 -13.792822 17 19 13
-1.426817 0.470218 -14.157867 12 16 10
-1.431516 0.469882 -14.147748 11 15 9
-1.472070 0.470050 -14.152806 17 19 13
-1.474102 0.468876 -14.117475 16 18 12
-1.501378 0.466712 -14.052324 10 14 8
4.273962 1.277020 -38.923695 22 22 16
4.254046 1.275765 -38.885460 22 22 16
4.238329 1.275765 -38.885460 21 21 15
4.222612 1.275765 -38.885460 21 21 15
4.211031 1.277020 -38.923695 24 24 18
4.199428 1.278276 -38.962006 25 25 19
4.179566 1.277020 -38.923695 22 22 16
4.163834 1.277020 -38.923695 25 21 16
4.139960 1.274513 -38.847301 23 19 14
4.116179 1.272017 -38.771202 22 15 12
4.088495 1.268290 -38.657616 21 14 11
4.060973 1.264585 -38.544693 20 13 10
4.033611 1.260902 -38.432426 15 8 5
4.010290 1.258458 -38.357944 16 9 6
3.990919 1.257240 -38.320812 13 6 3
3.967748 1.254811 -38.246761 14 7 4
3.952289 1.254811 -38.246761 13 6 3
0.896195 0.669448 -20.404844 150 14 16
0.887948 0.669448 -20.404844 151 15 17
0.879700 0.669448 -20.404844 153 12 15
0.871453 0.669448 -20.404844 157 14 17
0.220665 0.375790 -11.454108 185 4 8
0.216036 0.375790 -11.454108 186 7 10
0.211406 0.375790 -11.454108 185 6 9
0.206776 0.375790 -11.454108 183 4 7
0.202147 0.375790 -11.454108 184 5 6
0.197517 0.375790 -11.454108 187 11 11
0.192887 0.375790 -11.454108 188 12 11
0.188258 0.375790 -11.454108 190 16 16
0.183628 0.375790 -11.454108 187 13 13
0.178999 0.375790 -11.454108 184 10 10
0.174369 0.375790 -11.454108 185 11 11
0.169739 0.375790 -11.454108 184 10 10
0.165110 0.375790 -11.454108 181 9 9
0.160480 0.375790 -11.454108 180 8 8
0.155850 0.375790 -11.454108 173 5 4
0.151221 0.375790 -11.454108 175 11 12
0.146591 0.375790 -11.454108 166 7 9
0.141961 0.375790 -11.454108 160 7 10
0.137332 0.375790 -11.454108 134 7 8
0.132702 0.375790 -11.454108 92 11 8
0.128073 0.375790 -11.454108 56 12 5
0.123443 0.375790 -11.454108 36 20 14
0.118813 0.375790 -11.454108 21 21 15
0.114184 0.375790 -11.454108 22 22 16
0.109554 0.375790 -11.454108 17 19 13
0.104924 0.375790 -11.454108 19 23 17
0.100295 0.375790 -11.454108 19 23 17
-0.516567 0.454101 -13.841048 23 23 17
-0.521614 0.453625 -13.826545 16 18 12
-0.527387 0.453784 -13.831376 18 20 14
-0.533164 0.453942 -13.836210 18 20 14
-0.539133 0.454260 -13.845890 16 18 12
-0.544920 0.454419 -13.850734 15 19 13
-0.550711 0.454578 -13.855582 14 18 12
-0.556117 0.454419 -13.850734 18 22 16
-0.561911 0.454578 -13.855582 15 19 13
-0.567710 0.454737 -13.860434 18 20 14
-0.573514 0.454896 -13.865289 18 20 14
-0.579118 0.454896 -13.865289 16 18 12
-0.584927 0.455056 -13.870147 15 17 11
-0.590740 0.455215 -13.875009 18 19 15
-0.596348 0.455215 -13.875009 21 22 18
-0.601956 0.455215 -13.875009 18 19 15
-0.607564 0.455215 -13.875009 12 13 9
-0.612958 0.455056 -13.870147 6 7 5
-0.618781 0.455215 -13.875009 4 5 3
-0.624827 0.455535 -13.884742 4 4 4
-0.630881 0.455854 -13.894488 6 6 6
-0.636721 0.456014 -13.899367 7 6 8
-0.642339 0.456014 -13.899367 6 5 7
-0.647729 0.455854 -13.894488 7 6 8
-0.653116 0.455694 -13.889613 10 9 11
-0.658730 0.455694 -13.889613 8 8 8
-0.664577 0.455854 -13.894488 9 9 9
-0.669723 0.455535 -13.884742 7 8 6
-0.675099 0.455375 -13.879873 8 9 7
-0.679993 0.454896 -13.865289 10 11 9
-0.685598 0.454896 -13.865289 7 8 6
-0.705051 0.452992 -13.807255 12 13 11
-0.710136 0.452677 -13.797629 11 12 10
-0.715713 0.452677 -13.797629 9 10 8
-0.721290 0.452677 -13.797629 8 9 7
-0.726867 0.452677 -13.797629 9 10 8
-0.732189 0.452519 -13.792822 8 8 8
-0.737507 0.452361 -13.788017 7 7 7
-0.743597 0.452677 -13.797629 0 3 1
-0.748913 0.452519 -13.792822 1 4 2
-0.754488 0.452519 -13.792822 7 8 6
-0.760063 0.452519 -13.792822 10 11 9
-0.765638 0.452519 -13.792822 12 10 10
-0.771213 0.452519 -13.792822 9 7 7
-0.776788 0.452519 -13.792822 6 4 4
-0.782635 0.452677 -13.797629 6 4 4
-0.788212 0.452677 -13.797629 8 6 6
-0.793236 0.452361 -13.788017 10 10 10
-0.799087 0.452519 -13.792822 11 11 11
-0.804382 0.452361 -13.788017 8 8 8
-0.809955 0.452361 -13.788017 6 6 6
-0.815528 0.452361 -13.788017 5 7 7
-0.821101 0.452361 -13.788017 4 6 6
-0.826674 0.452361 -13.788017 1 3 3
-0.832247 0.452361 -13.788017 5 7 7
-0.837528 0.452204 -13.783216 7 9 9
-0.845454 0.453467 -13.821717 5 7 7
-0.850744 0.453309 -13.816893 2 4 4
-0.856927 0.453625 -13.826545 3 5 5
-0.862515 0.453625 -13.826545 3 5 5
-0.868104 0.453625 -13.826545 4 6 6
-0.873692 0.453625 -13.826545 6 8 8
-0.879281 0.453625 -13.826545 1 4 2
-0.884869 0.453625 -13.826545 6 7 5
-0.890769 0.453784 -13.831376 6 7 5
-0.896360 0.453784 -13.831376 7 8 6
-0.901635 0.453625 -13.826545 11 9 8
-0.906907 0.453467 -13.821717 7 5 4
-0.912493 0.453467 -13.821717 7 3 2
-0.918401 0.453625 -13.826545 8 6 5
-0.924312 0.453784 -13.831376 4 2 2
-0.930228 0.453942 -13.836210 3 3 3
-0.935493 0.453784 -13.831376 5 5 5
-0.941084 0.453784 -13.831376 7 7 7
-0.996659 0.451104 -13.749704 7 8 6
-1.002913 0.451418 -13.759263 11 12 10
-1.007774 0.451104 -13.749704 10 8 7
-1.011575 0.450322 -13.725866 9 7 6
-1.017828 0.450635 -13.735392 3 3 3
-1.024802 0.451261 -13.754481 6 6 6
-1.031078 0.451575 -13.764047 9 9 9
-1.036642 0.451575 -13.764047 8 8 8
-1.042567 0.451732 -13.768834 7 7 7
-1.048497 0.451889 -13.773625 3 3 3
-1.054064 0.451889 -13.773625 4 5 3
-1.060000 0.452046 -13.778419 10 11 9
-1.065570 0.452046 -13.778419 7 8 6
-1.071139 0.452046 -13.778419 4 5 3
-1.077083 0.452204 -13.783216 30 31 27
-1.082654 0.452204 -13.783216 29 30 26
-1.088225 0.452204 -13.783216 21 22 18
-1.093796 0.452204 -13.783216 18 22 17
-1.099367 0.452204 -13.783216 11 18 11
-1.104938 0.452204 -13.783216 16 23 16
-1.110509 0.452204 -13.783216 13 17 11
-1.116469 0.452361 -13.788017 15 19 13
-1.123215 0.452834 -13.802441 10 14 8
-1.411164 0.464994 -14.173075 12 16 11
-1.416893 0.464994 -14.173075 12 16 11
-1.422621 0.464994 -14.173075 13 17 12
-1.426817 0.464495 -14.157867 12 16 11
-1.431004 0.463997 -14.142694 11 15 10
-1.438262 0.464495 -14.157867 13 17 11
-1.445018 0.464828 -14.168002 16 20 14
-1.450226 0.464662 -14.162933 13 17 11
-1.455950 0.464662 -14.162933 11 15 9
-1.461152 0.464495 -14.157867 15 19 13
-1.468450 0.464994 -14.173075 12 16 10
-1.471544 0.464163 -14.147748 14 16 10
-1.474102 0.463170 -14.117475 16 18 12
-1.478753 0.462840 -14.107412 19 21 15
-1.483398 0.462510 -14.097364 12 14 8
-1.498890 0.462017 -14.082319 15 22 15
-1.502978 0.461524 -14.067306 15 22 15
-1.507057 0.461033 -14.052324 13 20 13
-1.522475 0.460542 -14.037375 13 20 13
4.242496 1.261287 -38.923695 20 22 16
4.230924 1.262528 -38.962006 20 22 16
4.215176 1.262528 -38.962006 22 24 18
4.203566 1.263772 -39.000393 22 22 16
4.187802 1.263772 -39.000393 22 22 16
4.167932 1.262528 -38.962006 25 22 17
4.144027 1.260048 -38.885460 24 20 15
4.124258 1.258811 -38.847301 21 14 11
4.096496 1.255116 -38.733265 17 10 7
4.068897 1.251443 -38.619900 18 11 8
4.037531 1.246578 -38.469776 18 11 8
4.014180 1.244160 -38.395149 15 8 5
3.994786 1.242954 -38.357944 13 6 3
3.971585 1.240550 -38.283752 14 7 4
3.956111 1.240550 -38.283752 13 6 3
0.895272 0.660519 -20.383831 153 18 20
0.258525 0.372345 -11.490682 184 5 8
0.220665 0.371160 -11.454108 183 2 6
0.216036 0.371160 -11.454108 185 6 9
0.211406 0.371160 -11.454108 186 7 10
0.206776 0.371160 -11.454108 185 6 9
0.202147 0.371160 -11.454108 187 8 9
0.197517 0.371160 -11.454108 191 15 15
0.192887 0.371160 -11.454108 191 15 14
0.188258 0.371160 -11.454108 192 18 18
0.183628 0.371160 -11.454108 190 16 16
0.178999 0.371160 -11.454108 187 13 13
0.174369 0.371160 -11.454108 187 13 13
0.169739 0.371160 -11.454108 183 9 9
0.165110 0.371160 -11.454108 178 6 6
0.160480 0.371160 -11.454108 179 9 8
0.155850 0.371160 -11.454108 179 10 12
0.151221 0.371160 -11.454108 170 5 8
0.146591 0.371160 -11.454108 161 2 4
0.141961 0.371160 -11.454108 156 2 7
0.137332 0.371160 -11.454108 135 8 9
0.132702 0.371160 -11.454108 89 8 5
0.128073 0.371160 -11.454108 65 21 14
0.123443 0.371160 -11.454108 36 20 14
0.118813 0.371160 -11.454108 23 20 15
0.114184 0.371160 -11.454108 19 19 13
0.109554 0.371160 -11.454108 18 20 14
0.104924 0.371160 -11.454108 20 22 16
-0.516747 0.448663 -13.845890 18 18 12
-0.521979 0.448350 -13.836210 20 22 16
-0.527571 0.448350 -13.836210 21 23 17
-0.533350 0.448507 -13.841048 20 22 16
-0.539322 0.448820 -13.850734 17 19 13
-0.545111 0.448978 -13.855582 15 19 13
-0.550711 0.448978 -13.855582 13 17 11
-0.556311 0.448978 -13.855582 18 22 16
-0.561911 0.448978 -13.855582 17 21 15
-0.567710 0.449135 -13.860434 17 19 13
-0.573514 0.449292 -13.865289 19 21 15
-0.579321 0.449450 -13.870147 17 19 13
-0.584927 0.449450 -13.870147 12 14 8
-0.590740 0.449607 -13.875009 15 16 12
-0.596348 0.449607 -13.875009 20 21 17
-0.601956 0.449607 -13.875009 16 17 13
-0.607564 0.449607 -13.875009 7 8 4
-0.612958 0.449450 -13.870147 6 7 5
-0.618781 0.449607 -13.875009 5 6 4
-0.624827 0.449922 -13.884742 5 5 5
-0.631103 0.450396 -13.899367 6 6 6
-0.636945 0.450555 -13.904249 6 5 7
-0.642339 0.450396 -13.899367 6 5 7
-0.647729 0.450238 -13.894488 6 5 7
-0.653116 0.450080 -13.889613 7 6 8
-0.658961 0.450238 -13.894488 6 6 6
-0.664811 0.450396 -13.899367 6 6 6
-0.669958 0.450080 -13.889613 5 6 4
-0.675099 0.449765 -13.879873 6 7 5
-0.679993 0.449292 -13.865289 8 9 7
-0.699470 0.447412 -13.807255 8 9 7
-0.704805 0.447256 -13.802441 10 11 9
-0.710136 0.447100 -13.797629 10 11 9
-0.715713 0.447100 -13.797629 8 9 7
-0.721039 0.446944 -13.792822 8 9 7
-0.726614 0.446944 -13.792822 10 11 9
-0.732189 0.446944 -13.792822 11 11 11
-0.737507 0.446788 -13.788017 9 9 9
-0.743338 0.446944 -13.792822 6 9 7
-0.748652 0.446788 -13.788017 6 9 7
-0.753963 0.446633 -13.783216 8 9 7
-0.759798 0.446788 -13.788017 9 10 8
-0.765371 0.446788 -13.788017 10 8 8
-0.770944 0.446788 -13.788017 8 6 6
-0.776517 0.446788 -13.788017 8 6 6
-0.782090 0.446788 -13.788017 8 6 6
-0.787663 0.446788 -13.788017 6 4 4
-0.792960 0.446633 -13.783216 8 6 6
-0.798531 0.446633 -13.783216 7 7 7
-0.803822 0.446477 -13.778419 6 6 6
-0.809391 0.446477 -13.778419 6 6 6
-0.814960 0.446477 -13.778419 6 6 6
-0.820529 0.446477 -13.778419 6 6 6
-0.826099 0.446477 -13.778419 3 5 5
-0.831668 0.446477 -13.778419 2 4 4
-0.837237 0.446477 -13.778419 7 9 9
-0.844864 0.447568 -13.812072 8 10 10
-0.850447 0.447568 -13.812072 6 8 8
-0.856627 0.447880 -13.821717 5 7 7
-0.862515 0.448037 -13.826545 3 5 5
-0.868104 0.448037 -13.826545 1 3 3
-0.873692 0.448037 -13.826545 2 4 4
-0.878974 0.447880 -13.821717 5 8 6
-0.884869 0.448037 -13.826545 4 7 5
-0.890769 0.448193 -13.831376 3 4 2
-0.896360 0.448193 -13.831376 4 5 3
-0.901635 0.448037 -13.826545 10 8 7
-0.906590 0.447724 -13.816893 9 7 6
-0.912175 0.447724 -13.816893 8 4 3
-0.918080 0.447880 -13.821717 10 6 5
-0.924312 0.448193 -13.831376 8 6 6
-0.929903 0.448193 -13.831376 6 4 4
-0.935493 0.448193 -13.831376 4 4 4
-0.941084 0.448193 -13.831376 7 7 7
-1.024802 0.445701 -13.754481 8 8 8
-1.030362 0.445701 -13.754481 10 10 10
-1.036281 0.445856 -13.759263 12 12 12
-1.042205 0.446011 -13.764047 13 13 13
-1.048133 0.446167 -13.768834 7 7 7
-1.053698 0.446167 -13.768834 6 7 5
-1.059632 0.446322 -13.773625 3 4 2
-1.065199 0.446322 -13.773625 10 11 9
-1.070766 0.446322 -13.773625 2 3 1
-1.076708 0.446477 -13.778419 48 49 45
-1.082654 0.446633 -13.783216 67 68 64
-1.088225 0.446633 -13.783216 27 28 24
-1.093415 0.446477 -13.778419 12 16 11
-1.099367 0.446633 -13.783216 11 18 11
-1.104938 0.446633 -13.783216 7 15 8
-1.110509 0.446633 -13.783216 13 20 13
-1.116080 0.446633 -13.783216 6 13 6
-1.122432 0.446944 -13.792822 7 14 7
-1.128401 0.447100 -13.797629 12 19 12
-1.387256 0.458937 -14.162933 16 16 10
-1.393479 0.459101 -14.168002 14 16 10
-1.405435 0.459266 -14.173075 11 15 10
-1.410154 0.458937 -14.162933 12 16 11
-1.415879 0.458937 -14.162933 12 16 11
-1.422112 0.459101 -14.168002 11 15 10
-1.426307 0.458609 -14.152806 11 15 10
-1.429472 0.457790 -14.127551 12 16 11
-1.434670 0.457627 -14.122511 13 17 11
-1.441922 0.458117 -14.137642 13 17 11
-1.446087 0.457627 -14.122511 12 16 10
-1.451277 0.457464 -14.117475 15 19 13
-1.457503 0.457627 -14.122511 15 19 13
-1.464256 0.457954 -14.132595 18 22 16
-1.468395 0.457464 -14.117475 11 13 7
-1.472526 0.456975 -14.102386 16 18 12
-1.477700 0.456812 -14.097364 16 18 12
-1.482870 0.456650 -14.092345 17 19 13
-1.487507 0.456325 -14.082319 13 17 11
-1.493199 0.456325 -14.082319 14 18 12
-1.498357 0.456162 -14.077311 11 18 11
-1.501911 0.455515 -14.057315 10 17 10
-1.506523 0.455191 -14.047338 8 15 8
-1.513274 0.455515 -14.057315 8 15 8
-1.517878 0.455191 -14.047338 9 16 9
-1.521936 0.454707 -14.032399 11 18 11
-1.525985 0.454224 -14.017492 9 16 9
4.246672 1.246780 -38.962006 19 23 17
4.230924 1.246780 -38.962006 19 23 17
4.219329 1.248009 -39.000393 24 26 20
4.203566 1.248009 -39.000393 23 23 17
4.187802 1.248009 -39.000393 24 24 18
4.167932 1.246780 -38.962006 24 21 16
4.148101 1.245554 -38.923695 21 17 12
4.124258 1.243110 -38.847301 19 12 9
4.100509 1.240675 -38.771202 15 8 5
4.068897 1.235833 -38.619900 15 8 5
4.037531 1.231029 -38.469776 19 12 9
4.014180 1.228641 -38.395149 14 7 4
3.994786 1.227450 -38.357944 12 5 2
3.975430 1.226262 -38.320812 14 7 4
3.956111 1.225076 -38.283752 13 6 3
3.940637 1.225076 -38.283752 13 6 3
3.909689 1.225076 -38.283752 13 4 1
3.886698 1.222711 -38.209843 15 6 3
3.841589 1.213342 -37.917049 14 4 4
0.894812 0.651945 -20.373339 155 19 21
0.870556 0.652281 -20.383831 160 16 21
0.263246 0.367807 -11.494019 186 7 10
0.258375 0.367487 -11.484015 182 3 6
0.220665 0.366530 -11.454108 183 2 6
0.216036 0.366530 -11.454108 185 6 9
0.211406 0.366530 -11.454108 187 8 11
0.206776 0.366530 -11.454108 188 9 12
0.202147 0.366530 -11.454108 190 11 12
0.197517 0.366530 -11.454108 187 11 11
0.192887 0.366530 -11.454108 187 11 10
0.188258 0.366530 -11.454108 193 17 17
0.183628 0.366530 -11.454108 193 17 17
0.178999 0.366530 -11.454108 189 14 17
0.174369 0.366530 -11.454108 188 13 16
0.169739 0.366530 -11.454108 182 10 12
0.165110 0.366530 -11.454108 181 9 11
0.160480 0.366530 -11.454108 179 8 10
0.155850 0.366530 -11.454108 181 12 14
0.151221 0.366530 -11.454108 173 8 11
0.146591 0.366530 -11.454108 165 6 8
0.141961 0.366530 -11.454108 157 3 8
0.137332 0.366530 -11.454108 133 6 7
0.132702 0.366530 -11.454108 88 7 4
0.128073 0.366530 -11.454108 64 20 13
0.123443 0.366530 -11.454108 37 19 12
0.118813 0.366530 -11.454108 23 21 13
0.114184 0.366530 -11.454108 19 20 11
0.109554 0.366530 -11.454108 20 23 14
-0.194059 0.447449 -13.982832 15 19 14
-0.199429 0.446818 -13.963103 17 18 14
-0.516747 0.443067 -13.845890 14 15 11
-0.521979 0.442757 -13.836210 18 20 14
-0.527756 0.442912 -13.841048 19 21 15
-0.533350 0.442912 -13.841048 19 21 15
-0.539133 0.443067 -13.845890 17 19 13
-0.545111 0.443377 -13.855582 15 19 13
-0.550711 0.443377 -13.855582 11 15 9
-0.556311 0.443377 -13.855582 16 21 12
-0.561911 0.443377 -13.855582 17 21 15
-0.567710 0.443533 -13.860434 17 19 13
-0.573514 0.443688 -13.865289 18 19 15
-0.579321 0.443843 -13.870147 16 17 13
-0.584927 0.443843 -13.870147 12 13 9
-0.590533 0.443843 -13.870147 13 14 10
-0.596139 0.443843 -13.870147 16 17 13
-0.601535 0.443688 -13.865289 12 13 11
-0.607139 0.443688 -13.865289 5 6 4
-0.612528 0.443533 -13.860434 5 5 5
-0.618131 0.443533 -13.860434 6 6 6
-0.624170 0.443843 -13.870147 5 7 7
-0.630218 0.444155 -13.879873 5 7 7
-0.636051 0.444310 -13.884742 5 7 7
-0.641438 0.444155 -13.879873 6 8 8
-0.646821 0.443999 -13.875009 6 8 9
-0.652201 0.443843 -13.870147 5 7 8
-0.657807 0.443843 -13.870147 8 8 8
-0.663413 0.443843 -13.870147 8 8 8
-0.698252 0.441062 -13.783216 8 9 7
-0.703824 0.441062 -13.783216 11 12 10
-0.709889 0.441369 -13.792822 11 12 10
-0.715713 0.441523 -13.797629 8 9 7
-0.721039 0.441369 -13.792822 7 7 7
-0.726361 0.441215 -13.788017 9 9 9
-0.731934 0.441215 -13.788017 9 9 9
-0.737507 0.441215 -13.788017 7 7 7
-0.742562 0.440908 -13.778419 7 10 8
-0.748131 0.440908 -13.778419 7 10 8
-0.753438 0.440755 -13.773625 7 10 8
-0.759005 0.440755 -13.773625 7 10 8
-0.764572 0.440755 -13.773625 8 9 7
-0.770408 0.440908 -13.778419 7 8 6
-0.775977 0.440908 -13.778419 11 9 9
-0.781274 0.440755 -13.773625 13 11 11
-0.787115 0.440908 -13.778419 11 9 9
-0.791857 0.440448 -13.764047 10 8 8
-0.797143 0.440295 -13.759263 9 7 7
-0.802426 0.440142 -13.754481 11 9 9
-0.807424 0.439836 -13.744930 11 9 9
-0.812415 0.439531 -13.735392 10 8 8
-0.817967 0.439531 -13.735392 9 7 7
-0.823519 0.439531 -13.735392 7 7 7
-0.829070 0.439531 -13.735392 6 9 7
-0.834622 0.439531 -13.735392 9 12 10
-0.843981 0.441523 -13.797629 8 11 9
-0.850150 0.441831 -13.807255 6 9 7
-0.856328 0.442139 -13.816893 6 8 8
-0.862515 0.442448 -13.826545 5 7 7
-0.867801 0.442294 -13.821717 5 7 7
-0.873692 0.442448 -13.826545 6 8 8
-0.878974 0.442294 -13.821717 6 8 8
-0.884869 0.442448 -13.826545 7 9 9
-0.890769 0.442603 -13.831376 8 9 7
-0.896360 0.442603 -13.831376 8 9 7
-0.901635 0.442448 -13.826545 11 9 8
-0.906590 0.442139 -13.816893 10 8 7
-0.911857 0.441985 -13.812072 12 8 7
-0.918080 0.442294 -13.821717 15 11 10
-0.924312 0.442603 -13.831376 13 11 10
-0.930228 0.442757 -13.836210 8 6 5
-0.935493 0.442603 -13.831376 5 6 4
-0.941084 0.442603 -13.831376 8 9 7
-1.024802 0.440142 -13.754481 11 11 11
-1.030362 0.440142 -13.754481 11 11 11
-1.035921 0.440142 -13.754481 11 11 11
-1.042205 0.440448 -13.764047 13 13 13
-1.048133 0.440601 -13.768834 11 11 11
-1.053698 0.440601 -13.768834 9 10 8
-1.059632 0.440755 -13.773625 10 11 9
-1.065199 0.440755 -13.773625 8 9 7
-1.070766 0.440755 -13.773625 13 14 12
-1.076708 0.440908 -13.778419 10 11 7
-1.082277 0.440908 -13.778419 51 52 48
-1.087846 0.440908 -13.778419 51 52 48
-1.093415 0.440908 -13.778419 18 22 17
-1.098984 0.440908 -13.778419 15 22 15
-1.104553 0.440908 -13.778419 9 17 10
-1.110122 0.440908 -13.778419 14 22 15
-1.116080 0.441062 -13.783216 9 17 10
-1.122041 0.441215 -13.788017 9 16 9
-1.127614 0.441215 -13.788017 10 17 10
-1.133582 0.441369 -13.792822 15 19 13
-1.386264 0.452888 -14.152806 13 14 10
-1.391487 0.452727 -14.147748 14 15 11
-1.399206 0.453375 -14.168002 15 16 12
-1.403927 0.453050 -14.157867 11 15 10
-1.408139 0.452565 -14.142694 14 18 13
-1.412846 0.452242 -14.132595 13 17 12
-1.420587 0.452888 -14.152806 11 15 10
-1.424270 0.452242 -14.132595 11 15 10
-1.427943 0.451597 -14.112441 15 19 14
-1.433137 0.451436 -14.107412 15 19 14
-1.438839 0.451436 -14.107412 12 16 11
-1.443512 0.451114 -14.097364 15 19 14
-1.454908 0.451114 -14.097364 13 17 11
-1.460606 0.451114 -14.097364 12 16 10
-1.466304 0.451114 -14.097364 12 16 10
-1.471478 0.450954 -14.092345 11 15 9
-1.477174 0.450954 -14.092345 15 17 11
-1.482342 0.450793 -14.087331 18 20 14
-1.486978 0.450473 -14.077311 12 16 10
-1.492667 0.450473 -14.077311 14 18 12
-1.497292 0.450152 -14.067306 13 20 13
-1.500845 0.449513 -14.047338 11 18 11
-1.505988 0.449354 -14.042355 10 17 10
-1.512200 0.449513 -14.047338 10 17 10
-1.517340 0.449354 -14.042355 9 15 10
-1.521936 0.449035 -14.032399 7 13 8
-1.525985 0.448558 -14.017492 11 17 12
-1.531108 0.448400 -14.012530 8 14 9
4.258229 1.229822 -38.923695 18 22 16
4.242496 1.229822 -38.923695 18 22 16
4.226764 1.229822 -38.923695 20 24 18
4.215176 1.231032 -38.962006 23 27 21
4.199428 1.231032 -38.962006 25 27 21
4.183680 1.231032 -38.962006 27 27 21
4.167932 1.231032 -38.962006 22 19 14
4.144027 1.228614 -38.885460 15 12 7
4.120215 1.226205 -38.809216 16 11 8
4.096496 1.223805 -38.733265 16 9 6
4.064931 1.219034 -38.582260 15 8 5
4.037531 1.215480 -38.469776 16 9 6
4.014180 1.213122 -38.395149 15 8 5
3.998661 1.213122 -38.395149 14 7 4
3.975430 1.210773 -38.320812 15 8 5
3.956111 1.209602 -38.283752 14 7 4
3.940637 1.209602 -38.283752 13 6 3
3.928963 1.210773 -38.320812 13 6 3
3.913474 1.210773 -38.320812 14 5 2
3.890453 1.208434 -38.246761 16 7 4
3.848963 1.200316 -37.989826 15 5 5
0.774209 0.518759 -16.418663 140 4 5
0.767255 0.518544 -16.411858 141 5 6
0.760621 0.518544 -16.411858 140 2 3
0.753675 0.518329 -16.405056 145 7 8
0.903511 0.644042 -20.383831 149 13 15
0.895272 0.644042 -20.383831 154 18 20
0.870556 0.644042 -20.383831 157 15 20
0.258450 0.362951 -11.487348 183 4 7
0.220665 0.361901 -11.454108 187 6 10
0.216036 0.361901 -11.454108 187 8 11
