ply
format ascii 1.0
element vertex 1165
property float x
property float y
property float z
property uchar red
property uchar green
property uchar blue
end_header
-16.293058 7.260982 -125.222641 144 149 152
-14.734530 6.521009 -112.461098 145 150 153
-13.310408 5.850276 -100.893669 145 150 153
-12.151924 5.304655 -91.483902 145 150 153
-11.352507 4.922108 -84.886505 144 149 152
-10.757110 4.632572 -79.893181 145 150 153
-10.098402 4.319825 -74.499550 144 151 154
-9.523009 4.046634 -69.788116 144 151 154
-8.982672 3.791846 -65.394043 147 151 156
-8.476810 3.554856 -61.306919 145 149 154
-8.109971 3.378873 -58.271923 144 148 153
-7.777740 3.219492 -55.523247 146 150 155
-7.453058 3.065265 -52.863449 147 152 155
-7.178571 2.933520 -50.591381 144 151 154
-6.851417 2.782061 -47.979328 143 150 153
-6.894895 2.782061 -47.979328 143 150 153
-6.938373 2.782061 -47.979328 141 148 151
-6.981851 2.782061 -47.979328 142 149 152
15.354674 5.360630 -93.916985 0 0 0
14.571973 5.115728 -89.626358 0 0 0
14.639378 5.168197 -90.545601 0 0 0
14.336761 5.089891 -89.173698 0 0 0
14.319789 5.141829 -90.083633 0 0 0
14.238156 5.141829 -90.083633 3 5 6
14.013529 5.089891 -89.173698 83 87 88
7.629452 2.887675 -50.591381 117 126 129
7.455433 2.838869 -49.736317 119 128 131
7.368848 2.822965 -49.457684 118 127 130
7.303572 2.815079 -49.319530 117 126 129
7.061627 2.738583 -47.979328 117 126 129
7.018149 2.738583 -47.979328 119 128 131
4.609133 2.807238 -49.182152 151 127 129
7.711572 5.893558 -103.253761 139 132 135
3.995567 3.381874 -59.249641 145 129 130
3.182709 2.846888 -49.876816 146 131 135
5.880218 5.661789 -99.193214 148 134 138
5.888166 7.356193 -128.878784 166 133 140
5.306570 6.763748 -118.499283 162 130 135
-17.697823 7.873425 -137.940567 145 148 152
-13.386904 5.791945 -101.473518 147 152 155
-12.215215 5.248950 -91.960381 146 151 154
-11.407350 4.868591 -85.296585 145 150 153
-10.757110 4.560174 -79.893181 145 150 153
-10.098402 4.252314 -74.499550 144 151 154
-9.485517 3.967710 -69.513359 144 151 154
-8.982672 3.732587 -65.394043 146 151 154
-8.476810 3.499300 -61.306919 146 151 154
-8.109971 3.326067 -58.271923 144 151 154
-7.753358 3.159243 -55.349194 144 151 154
-7.453058 3.017360 -52.863449 144 151 154
-7.199199 2.895972 -50.736759 144 151 154
-6.851417 2.738583 -47.979328 144 151 154
-6.894895 2.738583 -47.979328 145 152 155
-6.938373 2.738583 -47.979328 145 150 153
15.439780 5.275523 -93.916985 0 0 0
15.034785 5.165617 -91.960381 0 0 0
14.498378 5.009083 -89.173698 0 0 0
14.417569 5.009083 -89.173698 0 0 0
14.122780 4.934320 -87.842751 0 0 0
13.973657 4.909893 -87.407883 2 0 0
13.804372 4.934320 -87.842751 73 77 78
12.937163 4.678294 -83.284874 119 127 127
7.434491 2.785951 -49.596607 118 127 130
7.348265 2.770387 -49.319530 117 126 129
7.303572 2.770387 -49.319530 116 125 128
7.061627 2.695104 -47.979328 117 126 129
7.018149 2.695104 -47.979328 118 127 130
5.844235 2.695104 -47.979328 122 132 132
12.802178 7.748425 -137.940567 166 125 130
8.658197 6.357682 -113.182007 134 131 133
8.040234 5.974689 -106.363808 139 134 136
7.756934 5.834108 -103.861130 140 133 136
7.237104 5.509991 -98.091072 138 131 134
3.995567 3.328182 -59.249641 146 130 131
3.789287 3.199350 -56.956104 147 130 133
3.164828 2.785951 -49.596607 144 129 133
3.018149 2.695104 -47.979328 147 132 136
2.974671 2.695104 -47.979328 144 130 134
5.880218 5.571901 -99.193214 146 132 136
6.427178 7.748425 -137.940567 173 140 147
5.729557 7.186945 -127.944870 162 129 136
-17.697823 7.748425 -137.940567 146 149 153
-13.386904 5.699991 -101.473518 145 150 153
-12.279169 5.192662 -92.441849 146 151 154
-11.462725 4.814555 -85.710640 147 152 155
-10.806005 4.508174 -80.256332 147 152 155
-10.098402 4.184803 -74.499550 144 151 154
-9.485517 3.904718 -69.513359 144 151 154
-8.982672 3.673327 -65.394043 146 151 154
-8.506346 3.455744 -61.520531 146 151 154
-8.109971 3.273262 -58.271923 143 150 153
-7.777740 3.118863 -55.523247 142 149 152
-7.475439 2.978374 -53.022202 140 149 152
-7.199199 2.849995 -50.736759 141 150 153
-6.851417 2.695104 -47.979328 144 151 154
-6.894895 2.695104 -47.979328 145 152 155
-6.938373 2.695104 -47.979328 147 152 155
15.358088 5.162954 -93.420067 0 0 0
14.803480 5.004095 -90.545601 0 0 0
14.498378 4.928275 -89.173698 0 0 0
14.345119 4.903510 -88.725594 0 0 0
14.052865 4.830685 -87.407883 0 0 0
13.769164 4.759992 -86.128746 2 0 0
13.826003 4.806889 -86.977303 0 0 0
13.815241 4.830685 -87.407883 6 5 7
13.601366 4.783326 -86.550941 59 63 64
13.522935 4.783326 -86.550941 117 121 122
12.816256 4.559805 -82.506508 118 126 126
7.564428 2.772155 -50.160206 114 126 128
7.434491 2.741007 -49.596607 115 127 129
7.368848 2.733329 -49.457684 117 126 129
7.324030 2.733329 -49.457684 118 127 130
7.061627 2.651626 -47.979328 119 128 131
7.018149 2.651626 -47.979328 120 129 132
5.844235 2.651626 -47.979328 121 131 131
5.800757 2.651626 -47.979328 124 134 134
12.927178 7.623425 -137.940567 154 133 135
12.802178 7.623425 -137.940567 166 126 131
8.558037 5.303252 -95.958656 143 127 128
8.246978 5.162954 -93.420067 139 134 135
7.951953 5.029889 -91.012329 134 134 134
7.910253 5.055950 -91.483902 131 135 136
7.668420 4.953291 -89.626358 128 132 133
5.096442 3.399994 -61.520531 131 137 136
4.806242 3.241855 -58.659111 133 138 137
8.394206 6.137097 -111.046494 139 132 135
7.849279 5.808324 -105.097572 141 132 135
7.277535 5.451388 -98.639061 141 132 135
6.771994 5.135781 -92.928383 143 132 135
4.613883 3.682258 -66.627899 143 130 132
4.340571 3.510066 -63.512203 143 130 132
4.022563 3.296616 -59.649975 144 130 132
3.789287 3.147737 -56.956104 145 131 133
3.598382 3.030430 -54.833519 146 131 135
3.219082 2.787995 -50.446835 142 128 132
3.018149 2.651626 -47.979328 147 133 137
2.974671 2.651626 -47.979328 145 131 135
2.931192 2.651626 -47.979328 145 131 135
5.847368 5.451388 -98.639061 146 132 136
6.427178 7.623425 -137.940567 168 136 141
6.302178 7.623425 -137.940567 167 135 140
6.177178 7.623425 -137.940567 164 132 137
-17.697823 7.623425 -137.940567 147 150 154
-13.386904 5.608037 -101.473518 144 149 152
-12.279169 5.108892 -92.441849 145 150 153
-11.462725 4.736886 -85.710640 147 152 155
-10.806005 4.435447 -80.256332 147 152 155
-10.098402 4.117293 -74.499550 144 151 154
-9.523009 3.856911 -69.788116 143 150 153
-8.982672 3.614068 -65.394043 143 148 151
-8.506346 3.399994 -61.520531 145 150 153
-8.109971 3.220457 -58.271923 146 153 156
-7.777740 3.068548 -55.523247 147 154 157
-7.475439 2.930326 -53.022202 144 153 156
-7.199199 2.804018 -50.736759 143 152 155
-6.851417 2.651626 -47.979328 143 150 153
-6.894895 2.651626 -47.979328 143 150 153
-6.938373 2.651626 -47.979328 147 152 155
15.949064 5.244800 -96.483017 0 0 0
15.358088 5.078299 -93.420067 0 0 0
14.879787 4.947414 -91.012329 0 0 0
14.498378 4.847466 -89.173698 0 0 0
14.345119 4.823108 -88.725594 0 0 0
13.983639 4.728071 -86.977303 0 0 0
13.702324 4.659215 -85.710640 2 0 0
13.826003 4.728071 -86.977303 3 1 1
13.815241 4.751477 -87.407883 6 5 7
13.535018 4.681943 -86.128746 47 49 50
13.522935 4.704894 -86.550941 117 121 122
12.816256 4.485039 -82.506508 119 127 127
7.612087 2.711295 -49.876816 114 126 128
7.566889 2.711295 -49.876816 113 125 127
7.542999 2.718976 -50.018108 113 125 127
7.434491 2.696063 -49.596607 114 126 128
7.368848 2.688511 -49.457684 117 126 129
7.428064 2.726700 -50.160206 118 127 130
7.018149 2.608148 -47.979328 119 128 131
5.844235 2.608148 -47.979328 120 130 130
5.800757 2.608148 -47.979328 122 132 132
13.427178 7.498425 -137.940567 131 133 134
13.052178 7.498425 -137.940567 140 129 131
12.927178 7.498425 -137.940567 153 132 134
12.802178 7.498425 -137.940567 165 128 132
12.677178 7.498425 -137.940567 176 130 136
8.466015 5.160206 -94.926842 147 129 130
8.076056 4.973049 -91.483902 141 136 135
7.791307 4.847466 -89.173698 135 135 135
7.749639 4.872073 -89.626358 134 139 138
5.338191 3.464976 -63.741489 130 135 134
5.043720 3.309650 -60.884113 135 140 139
4.758812 3.157232 -58.080238 133 136 134
8.666746 6.232457 -114.651901 140 131 134
7.896280 5.747296 -105.726898 141 130 133
7.359767 5.422590 -99.753632 141 130 133
6.844037 5.105310 -93.916985 145 131 135
4.648969 3.649424 -67.134575 143 130 132
4.372025 3.477530 -63.972435 143 130 132
4.063750 3.275763 -60.260727 143 130 132
3.826315 3.126379 -57.512680 146 132 134
3.632222 3.008772 -55.349194 143 128 132
3.421194 2.873648 -52.863449 144 129 133
3.256297 2.773984 -51.030037 144 130 134
3.018149 2.608148 -47.979328 148 134 138
2.974671 2.608148 -47.979328 145 131 135
2.931192 2.608148 -47.979328 145 131 135
5.782756 5.302753 -97.549133 150 136 140
5.541284 5.160206 -94.926842 150 135 139
6.427178 7.498425 -137.940567 161 129 134
6.302178 7.498425 -137.940567 166 134 139
6.177178 7.498425 -137.940567 163 131 136
-17.697823 7.498425 -137.940567 147 150 154
-13.464285 5.547967 -102.060074 145 150 153
-12.279169 5.025123 -92.441849 145 150 153
-11.462725 4.659215 -85.710640 145 150 153
-10.806005 4.362720 -80.256332 146 151 154
-10.098402 4.049782 -74.499550 144 151 154
-9.523009 3.793669 -69.788116 143 150 153
-8.982672 3.554809 -65.394043 148 153 156
-8.506346 3.344245 -61.520531 147 152 155
-8.109971 3.167651 -58.271923 145 152 155
-7.777740 3.018234 -55.523247 143 150 153
-7.475439 2.882277 -53.022202 141 150 153
-7.219946 2.765990 -50.882977 142 151 154
-6.851417 2.608148 -47.979328 145 152 155
-6.894895 2.608148 -47.979328 147 154 157
-6.938373 2.608148 -47.979328 145 150 153
15.949064 5.157368 -96.483017 0 0 0
15.439780 5.020204 -93.916985 0 0 0
15.193046 4.967360 -92.928383 0 0 0
14.646320 4.815298 -90.083633 0 0 0
14.345119 4.742705 -88.725594 0 0 0
14.052865 4.672269 -87.407883 0 0 0
13.836660 4.626463 -86.550941 2 0 0
13.826003 4.649253 -86.977303 4 2 2
13.815241 4.672269 -87.407883 6 5 7
13.601366 4.626463 -86.550941 34 36 37
13.522935 4.626463 -86.550941 117 121 122
12.876426 4.430978 -82.893860 120 128 128
7.677147 2.688884 -50.303112 116 128 130
7.566889 2.666097 -49.876816 116 128 130
7.564428 2.681246 -50.160206 115 127 129
7.455433 2.658587 -49.736317 115 127 129
7.368848 2.643693 -49.457684 118 128 128
7.513444 2.712064 -50.736759 118 128 128
7.218552 2.621662 -49.045536 119 127 127
7.018149 2.564670 -47.979328 118 126 126
5.844235 2.564670 -47.979328 123 132 135
13.552178 7.373425 -137.940567 131 133 134
13.427178 7.373425 -137.940567 130 132 133
13.302178 7.373425 -137.940567 129 128 130
13.177178 7.373425 -137.940567 135 133 133
13.052178 7.373425 -137.940567 136 128 129
12.927178 7.373425 -137.940567 147 129 130
8.511778 5.101613 -95.439957 154 133 132
8.034427 4.864940 -91.012329 146 136 136
5.026388 3.243294 -60.674889 132 134 134
4.774518 3.114846 -58.271923 134 135 133
9.251225 6.464373 -120.934196 139 132 135
8.780782 6.209200 -116.160477 140 131 134
7.896280 5.651487 -105.726898 144 130 134
7.359767 5.332194 -99.753632 145 131 135
6.844037 5.020204 -93.916985 147 132 136
6.228818 4.626463 -86.550941 146 132 136
4.648969 3.588587 -67.134575 142 131 133
4.387923 3.431994 -64.205063 141 130 132
4.077667 3.232186 -60.467098 141 130 132
3.826315 3.074262 -57.512680 146 133 135
3.643644 2.967920 -55.523247 142 127 131
3.431468 2.834229 -53.022202 145 130 134
3.256297 2.727741 -51.030037 145 131 135
3.018149 2.564670 -47.979328 146 132 136
2.974671 2.564670 -47.979328 143 129 133
2.931192 2.564670 -47.979328 146 132 136
2.887714 2.564670 -47.979328 147 133 137
6.427178 7.373425 -137.940567 164 132 137
6.302178 7.373425 -137.940567 168 134 140
6.177178 7.373425 -137.940567 164 130 136
6.052178 7.373425 -137.940567 167 133 139
-17.697823 7.373425 -137.940567 147 152 155
-13.464285 5.455482 -102.060074 147 152 155
-12.279169 4.941353 -92.441849 146 151 154
-11.462725 4.581546 -85.710640 145 150 153
-10.806005 4.289993 -80.256332 145 150 153
-10.098402 3.982272 -74.499550 146 151 154
-9.523009 3.730428 -69.788116 146 151 154
-8.982672 3.495550 -65.394043 147 152 155
-8.506346 3.288496 -61.520531 147 152 155
-8.109971 3.114846 -58.271923 144 151 154
-7.777740 2.967920 -55.523247 143 150 153
-7.475439 2.834229 -53.022202 141 150 153
-7.219946 2.719880 -50.882977 141 150 153
-6.851417 2.564670 -47.979328 145 152 155
-6.894895 2.564670 -47.979328 146 153 156
-6.938373 2.564670 -47.979328 145 150 153
15.949064 5.069937 -96.483017 0 0 0
15.439780 4.935098 -93.916985 0 0 0
15.193046 4.883150 -92.928383 0 0 0
14.646320 4.733665 -90.083633 0 0 0
14.345119 4.662303 -88.725594 0 0 0
14.052865 4.593061 -87.407883 0 0 0
13.836660 4.548031 -86.550941 2 0 0
13.691115 4.525846 -86.128746 4 2 2
13.815241 4.593061 -87.407883 5 4 6
13.535018 4.525846 -86.128746 23 25 26
13.522935 4.548031 -86.550941 119 123 124
12.876426 4.355861 -82.893860 122 127 128
7.743330 2.666087 -50.736759 115 127 129
7.566889 2.620899 -49.876816 116 128 130
7.607654 2.650853 -50.446835 116 128 130
7.476493 2.620899 -49.876816 116 128 130
7.368848 2.598875 -49.457684 118 128 128
7.258879 2.591616 -49.319530 119 127 127
7.018149 2.521191 -47.979328 118 126 126
13.677178 7.248425 -137.940567 128 133 134
13.552178 7.248425 -137.940567 131 135 136
13.427178 7.248425 -137.940567 130 132 133
13.302178 7.248425 -137.940567 127 126 128
13.177178 7.248425 -137.940567 132 129 131
13.052178 7.248425 -137.940567 138 132 133
12.927178 7.248425 -137.940567 145 129 130
12.802178 7.248425 -137.940567 159 130 133
11.813815 6.822047 -129.826416 177 134 137
5.009174 3.177392 -60.467098 139 139 139
9.975758 6.772251 -128.878784 136 131 133
9.445307 6.488101 -123.471275 137 130 133
7.943849 5.589147 -106.363808 146 132 136
6.917628 4.988163 -94.926842 146 131 135
6.321785 4.615912 -87.842751 147 132 136
5.097444 3.818100 -72.660049 144 131 133
4.666713 3.541215 -67.390808 144 131 133
4.403937 3.386126 -64.439392 140 129 131
4.119996 3.210375 -61.094784 141 130 132
3.864075 3.051968 -58.080238 145 134 136
3.666705 2.936071 -55.874660 144 130 134
3.441804 2.794574 -53.181904 146 131 135
3.275229 2.697088 -51.326721 143 129 133
3.093813 2.584397 -49.182152 144 130 134
2.974671 2.521191 -47.979328 142 128 132
2.931192 2.521191 -47.979328 147 133 137
2.887714 2.521191 -47.979328 145 131 135
6.427178 7.248425 -137.940567 166 134 139
6.302178 7.248425 -137.940567 166 132 138
6.177178 7.248425 -137.940567 166 132 138
-17.697823 7.248425 -137.940567 148 153 156
-14.828982 5.947426 -113.182007 146 151 154
-13.386904 5.332175 -101.473518 148 153 156
-12.215215 4.832283 -91.960381 148 153 156
-11.462725 4.503876 -85.710640 147 152 155
-10.806005 4.217266 -80.256332 146 151 154
-10.098402 3.914761 -74.499550 146 151 154
-9.485517 3.652750 -69.513359 147 152 155
-8.949525 3.423610 -65.152740 144 149 152
-8.506346 3.232747 -61.520531 146 151 154
-8.109971 3.062041 -58.271923 145 152 155
-7.802275 2.926809 -55.698399 147 154 157
-7.497956 2.794574 -53.181904 145 154 157
-7.219946 2.673771 -50.882977 144 153 156
-6.851417 2.521191 -47.979328 144 151 154
-6.894895 2.521191 -47.979328 143 150 153
-6.938373 2.521191 -47.979328 145 150 153
15.949064 4.982505 -96.483017 0 0 0
15.358088 4.824330 -93.420067 0 0 0
15.113502 4.773814 -92.441849 0 0 0
14.797313 4.699992 -91.012329 0 0 0
14.345119 4.581902 -88.725594 0 0 0
13.983639 4.491618 -86.977303 0 0 0
13.702324 4.426206 -85.710640 0 0 0
13.624654 4.426206 -85.710640 0 0 0
13.747186 4.491618 -86.977303 4 3 5
13.404245 4.404823 -85.296585 12 14 15
12.816256 4.260740 -82.506508 121 126 127
7.788089 2.635256 -51.030037 113 125 125
7.588325 2.582998 -50.018108 115 127 127
7.629452 2.612603 -50.591381 117 127 127
7.497674 2.582998 -50.018108 118 128 128
7.389547 2.561231 -49.596607 118 128 128
7.299659 2.561231 -49.596607 121 129 129
13.677178 7.123425 -137.940567 129 134 135
13.552178 7.123425 -137.940567 131 135 136
13.427178 7.123425 -137.940567 130 134 135
13.302178 7.123425 -137.940567 128 130 131
13.177178 7.123425 -137.940567 132 131 133
13.052178 7.123425 -137.940567 135 130 131
12.927178 7.123425 -137.940567 140 128 128
12.802178 7.123425 -137.940567 154 130 132
12.677178 7.123425 -137.940567 165 132 136
11.394885 6.466655 -125.222641 175 132 135
8.139993 5.628385 -108.990074 148 133 137
7.618005 5.332154 -103.253761 152 135 139
7.031032 4.982505 -96.483017 148 131 134
6.483055 4.652033 -90.083633 148 131 134
4.485795 3.389585 -65.637146 141 130 132
4.192531 3.210558 -62.170395 141 130 132
3.928692 3.049493 -59.051479 144 133 135
3.713714 2.922431 -56.591003 145 131 135
3.494431 2.788374 -53.995083 145 131 135
3.333369 2.697628 -52.237846 142 128 132
3.191606 2.620110 -50.736759 145 131 135
2.974671 2.477713 -47.979328 141 130 133
2.931192 2.477713 -47.979328 144 133 136
6.302178 7.123425 -137.940567 162 130 135
6.177178 7.123425 -137.940567 164 132 137
-17.697823 7.123425 -137.940567 148 153 156
-17.822823 7.123425 -137.940567 148 153 156
-16.293058 6.466655 -125.222641 145 150 153
-14.828982 5.844862 -113.182007 146 151 154
-13.386904 5.240221 -101.473518 148 153 156
-12.215215 4.748950 -91.960381 148 153 156
-11.407350 4.404823 -85.296585 148 153 156
-10.708654 4.107200 -79.533302 147 152 155
-10.055972 3.831086 -74.186523 146 151 154
-9.448318 3.575680 -69.240753 147 152 155
-8.949525 3.364570 -65.152740 149 154 157
-8.536088 3.188106 -61.735638 147 152 155
-8.136826 3.019200 -58.464874 144 151 154
-7.802275 2.876336 -55.698399 144 151 154
-7.497956 2.746381 -53.181904 145 152 155
-7.219946 2.627661 -50.882977 146 153 156
-6.851417 2.477713 -47.979328 147 154 157
-6.894895 2.477713 -47.979328 147 154 157
-6.938373 2.477713 -47.979328 146 151 154
15.949064 4.895073 -96.483017 0 0 0
15.358088 4.739674 -93.420067 0 0 0
15.193046 4.714728 -92.928383 0 0 0
14.951451 4.665617 -91.960381 0 0 0
14.417569 4.524234 -89.173698 0 0 0
13.983639 4.412800 -86.977303 0 0 0
13.702324 4.348536 -85.710640 1 1 1
13.691115 4.369748 -86.128746 0 0 0
13.815241 4.434646 -87.407883 4 3 5
13.469315 4.348536 -85.710640 6 8 9
12.998477 4.245490 -83.679588 120 125 126
7.810663 2.596517 -51.177948 116 126 126
7.631563 2.552132 -50.303112 116 128 128
7.651376 2.574133 -50.736759 118 128 128
7.518974 2.544882 -50.160206 118 128 128
7.410363 2.523376 -49.736317 118 128 128
7.382610 2.544882 -50.160206 120 128 128
6.061627 2.434235 -47.979328 127 132 133
6.018149 2.434235 -47.979328 128 133 134
13.677178 6.998425 -137.940567 123 131 131
13.552178 6.998425 -137.940567 126 131 132
13.427178 6.998425 -137.940567 128 132 133
13.302178 6.998425 -137.940567 128 130 131
13.177178 6.998425 -137.940567 132 131 133
13.052178 6.998425 -137.940567 133 128 130
12.927178 6.998425 -137.940567 137 126 128
12.802178 6.998425 -137.940567 148 129 132
12.677178 6.998425 -137.940567 165 136 139
7.188150 5.004460 -98.639061 151 132 135
6.758930 4.764885 -93.916985 150 131 134
3.981962 3.036605 -59.852177 144 133 135
3.774198 2.917910 -57.512680 143 129 133
3.548692 2.781983 -54.833519 144 130 134
3.393611 2.698188 -53.181904 144 130 134
2.931192 2.434235 -47.979328 142 131 134
7.302178 6.998425 -137.940567 156 135 138
6.177178 6.998425 -137.940567 163 131 136
-17.697823 6.998425 -137.940567 148 153 156
-14.828982 5.742298 -113.182007 148 153 156
-13.386904 5.148267 -101.473518 148 153 156
-12.215215 4.665617 -91.960381 147 152 155
-11.352507 4.306723 -84.886505 147 152 155
-10.708654 4.035128 -79.533302 146 151 154
-10.055972 3.763859 -74.186523 146 151 154
-9.448318 3.512935 -69.240753 146 151 154
-8.949525 3.305529 -65.152740 147 152 155
-8.506346 3.121249 -61.520531 146 151 154
-8.109971 2.956430 -58.271923 146 151 154
-7.777740 2.816976 -55.523247 144 151 154
-7.497956 2.698188 -53.181904 146 153 156
-7.219946 2.581552 -50.882977 146 153 156
-6.851417 2.434235 -47.979328 146 153 156
-6.894895 2.434235 -47.979328 145 152 155
-6.938373 2.434235 -47.979328 147 152 155
15.358088 4.655018 -93.420067 0 0 0
15.193046 4.630518 -92.928383 0 0 0
14.951451 4.582283 -91.960381 0 0 0
14.417569 4.443426 -89.173698 0 0 0
13.983639 4.333982 -86.977303 0 0 0
13.702324 4.270866 -85.710640 0 0 0
13.758229 4.312737 -86.550941 1 1 1
13.815241 4.355438 -87.407883 1 0 2
13.313974 4.270866 -85.710640 121 126 127
7.856206 2.565010 -51.476364 117 127 127
7.673426 2.535442 -50.882977 115 125 125
7.540395 2.506548 -50.303112 116 126 126
7.410363 2.478305 -49.736317 118 126 126
6.192062 2.390757 -47.979328 123 131 131
6.061627 2.390757 -47.979328 125 130 131
6.018149 2.390757 -47.979328 127 131 132
13.552178 6.873425 -137.940567 130 135 136
13.427178 6.873425 -137.940567 128 133 134
13.177178 6.873425 -137.940567 132 134 135
7.943163 5.364625 -107.660927 151 134 137
7.394706 5.056313 -101.473518 153 134 137
7.427178 6.873425 -137.940567 152 133 136
7.302178 6.873425 -137.940567 154 133 136
7.177178 6.873425 -137.940567 153 132 135
6.177178 6.873425 -137.940567 167 136 139
-17.697823 6.873425 -137.940567 146 151 154
-13.386904 5.056313 -101.473518 149 154 157
-12.279169 4.606274 -92.441849 148 153 156
-11.407350 4.250234 -85.296585 147 152 155
-10.757110 3.980988 -79.893181 147 152 155
-10.098402 3.712229 -74.499550 147 152 155
-9.485517 3.463773 -69.513359 146 151 154
-8.949525 3.246489 -65.152740 148 151 155
-8.506346 3.065500 -61.520531 145 150 153
-8.083294 2.894074 -58.080238 145 150 153
-7.753358 2.757989 -55.349194 145 150 153
-7.475439 2.642037 -53.022202 142 149 152
-7.219946 2.535442 -50.882977 144 151 154
-6.851417 2.390757 -47.979328 145 152 155
-6.894895 2.390757 -47.979328 145 152 155
-6.938373 2.390757 -47.979328 145 150 153
15.691821 4.644077 -94.926842 0 0 0
15.277256 4.546308 -92.928383 0 0 0
15.113502 4.522505 -92.441849 0 0 0
14.873983 4.475639 -91.483902 0 0 0
14.345119 4.340695 -88.725594 0 0 0
13.983639 4.255165 -86.977303 0 0 0
13.769164 4.213651 -86.128746 0 0 0
13.826003 4.255165 -86.977303 0 0 0
13.815241 4.276230 -87.407883 1 0 2
13.535018 4.213651 -86.128746 0 1 2
13.444504 4.234306 -86.550941 123 127 128
6.235540 2.347278 -47.979328 123 131 131
6.192062 2.347278 -47.979328 124 132 132
6.061627 2.347278 -47.979328 126 131 132
7.427178 6.748425 -137.940567 151 132 135
7.302178 6.748425 -137.940567 154 133 136
7.177178 6.748425 -137.940567 156 135 138
6.588897 6.305098 -128.878784 154 133 136
6.177178 6.748425 -137.940567 165 134 137
4.080653 4.746145 -97.013145 168 135 139
3.784786 4.498950 -91.960381 168 135 139
3.500881 4.255165 -86.977303 174 137 141
-17.697823 6.748425 -137.940567 145 150 153
-13.386904 4.964359 -101.473518 148 153 156
-12.279169 4.522505 -92.441849 147 152 155
-11.407350 4.172939 -85.296585 147 152 155
-10.757110 3.908590 -79.893181 147 152 155
-10.141191 3.660163 -74.815224 147 152 155
-9.560799 3.427771 -70.065048 147 152 155
-8.982672 3.199253 -65.394043 149 152 156
-8.506346 3.009751 -61.520531 147 150 154
-8.056791 2.832126 -57.889812 146 151 154
-7.729129 2.699370 -55.176228 146 151 154
-7.475439 2.593989 -53.022202 144 151 154
-7.219946 2.489333 -50.882977 145 152 155
-6.851417 2.347278 -47.979328 145 152 155
-6.894895 2.347278 -47.979328 144 151 154
15.361467 4.462097 -92.928383 0 0 0
15.118118 4.415617 -91.960381 0 0 0
14.803480 4.347684 -90.545601 0 0 0
14.721429 4.347684 -90.545601 0 0 0
14.273394 4.238992 -88.281960 0 0 0
13.983639 4.176347 -86.977303 0 0 0
13.836660 4.155875 -86.550941 0 0 0
13.826003 4.176347 -86.977303 0 0 0
13.747186 4.176347 -86.977303 1 0 2
13.469315 4.115526 -85.710640 0 0 1
13.589550 4.176347 -86.977303 138 140 141
13.444504 4.155875 -86.550941 123 127 128
12.801309 3.980274 -82.893860 121 126 127
7.361696 2.401695 -50.018108 122 130 130
6.192062 2.303800 -47.979328 124 132 132
10.268620 4.018002 -83.679588 127 135 135
8.748683 3.474584 -72.362267 125 133 133
8.308544 3.324700 -69.240753 126 131 132
5.996114 2.493525 -51.930565 128 133 134
5.452931 2.303800 -47.979328 127 135 135
7.427178 6.623425 -137.940567 152 133 136
7.302178 6.623425 -137.940567 155 134 137
7.177178 6.623425 -137.940567 157 136 139
6.494092 6.099269 -127.024406 153 134 137
-17.697823 6.623425 -137.940567 147 152 155
-13.386904 4.872405 -101.473518 147 152 155
-12.343797 4.462097 -92.928383 146 151 154
-11.462725 4.115526 -85.710640 146 151 154
-10.757110 3.836192 -79.893181 147 152 155
-10.141191 3.592366 -74.815224 147 152 155
-9.560799 3.364279 -70.065048 146 151 154
-9.016065 3.151667 -65.637146 148 151 156
-8.536088 2.964330 -61.735638 147 150 155
-8.083294 2.788810 -58.080238 146 151 154
-7.729129 2.649370 -55.176228 147 152 155
-7.453058 2.538319 -52.863449 145 152 155
-7.219946 2.443223 -50.882977 146 153 156
-6.851417 2.303800 -47.979328 145 153 153
-6.894895 2.303800 -47.979328 143 151 151
-6.938373 2.303800 -47.979328 145 150 151
15.039786 4.309836 -91.483902 0 0 0
14.727953 4.243869 -90.083633 0 0 0
14.646320 4.243869 -90.083633 0 0 0
14.202382 4.138300 -87.842751 0 0 0
13.983639 4.097529 -86.977303 0 0 0
13.836660 4.077443 -86.550941 1 1 1
13.894449 4.117814 -87.407883 0 0 0
13.747186 4.097529 -86.977303 0 0 1
13.535018 4.057553 -86.128746 0 0 1
7.299659 2.336512 -49.596607 124 132 132
7.018149 2.260322 -47.979328 122 130 130
6.974670 2.260322 -47.979328 123 128 129
13.504139 5.071941 -107.660927 126 130 131
12.352128 4.673025 -99.193214 125 129 130
11.023630 4.201002 -89.173698 128 133 134
10.317517 3.960945 -84.078056 125 133 133
9.516277 3.680524 -78.125633 125 133 133
8.784686 3.423039 -72.660049 128 136 136
8.308544 3.261955 -69.240753 129 134 135
7.816649 3.092187 -65.637146 129 134 135
7.146160 2.848625 -60.467098 128 133 134
6.264265 2.535971 -53.830463 129 134 135
6.013802 2.453683 -52.083755 127 132 133
5.713782 2.349713 -49.876816 126 134 134
5.452931 2.260322 -47.979328 127 135 135
5.409453 2.260322 -47.979328 127 135 135
7.427178 6.498425 -137.940567 153 136 139
7.302178 6.498425 -137.940567 154 135 138
7.177178 6.498425 -137.940567 156 135 138
6.588897 6.071521 -128.878784 154 135 138
1.496410 2.260322 -47.979328 177 139 145
-17.697823 6.498425 -137.940567 144 149 152
-17.822823 6.498425 -137.940567 146 151 154
-16.293058 5.899280 -125.222641 148 153 156
-14.828982 5.332041 -113.182007 147 152 155
-13.386904 4.780450 -101.473518 147 152 155
-12.215215 4.332283 -91.960381 146 151 154
-11.352507 3.999031 -84.886505 146 151 154
-10.757110 3.763794 -79.893181 146 151 154
-10.141191 3.524570 -74.815224 146 151 154
-9.560799 3.300787 -70.065048 145 150 153
-9.016065 3.092187 -65.637146 148 151 156
-8.536088 2.908386 -61.735638 146 149 154
-8.136826 2.754299 -58.464874 146 151 154
-7.430810 2.482980 -52.705650 145 152 155
-7.178571 2.383377 -50.591381 146 153 156
-6.894895 2.260322 -47.979328 144 152 152
-6.938373 2.260322 -47.979328 145 150 151
-6.981851 2.260322 -47.979328 145 150 151
15.197270 4.271196 -92.441849 0 0 0
15.113502 4.271196 -92.441849 0 0 0
14.721429 4.183581 -90.545601 0 0 0
14.273394 4.078992 -88.281960 0 0 0
14.052865 4.038606 -87.407883 0 0 0
13.904821 4.018712 -86.977303 0 0 0
14.033394 4.078992 -88.281960 0 0 0
13.883974 4.058699 -87.842751 1 0 2
13.668368 4.018712 -86.977303 0 0 1
7.403643 2.324212 -50.303112 122 130 130
7.018149 2.216843 -47.979328 122 130 130
6.974670 2.216843 -47.979328 122 130 130
6.626844 2.216843 -47.979328 120 128 128
6.583366 2.216843 -47.979328 123 131 131
17.927177 6.373425 -137.940567 123 133 133
17.802177 6.373425 -137.940567 123 133 133
11.079587 4.141109 -89.626358 129 134 135
10.416724 3.922108 -84.886505 127 132 133
9.644300 3.658289 -79.176651 127 132 133
8.820987 3.371068 -72.960297 129 134 135
8.308544 3.199209 -69.240753 130 135 136
7.845816 3.044024 -65.882065 128 133 134
7.195444 2.813098 -60.884113 129 133 134
6.658131 2.623146 -56.772968 131 135 136
6.264265 2.487190 -53.830463 129 134 135
6.031594 2.413605 -52.237846 128 133 134
5.746247 2.317609 -50.160206 127 132 133
5.452931 2.216843 -47.979328 129 134 135
5.409453 2.216843 -47.979328 130 135 136
7.677178 6.373425 -137.940567 150 135 139
7.552178 6.373425 -137.940567 150 133 136
7.427178 6.373425 -137.940567 153 136 139
7.302178 6.373425 -137.940567 152 133 136
7.177178 6.373425 -137.940567 153 134 137
6.401978 5.785804 -125.222641 153 134 137
4.757808 4.457915 -96.483017 157 136 139
4.428388 4.226935 -91.483902 161 138 142
3.592484 3.562438 -77.102150 164 137 140
3.292567 3.329789 -72.066910 163 134 137
2.786614 2.934527 -63.512203 169 138 141
2.616134 2.813098 -60.884113 168 137 140
2.115116 2.427971 -52.548786 171 136 140
1.496410 2.216843 -47.979328 181 140 147
1.452932 2.216843 -47.979328 178 137 144
-17.697823 6.373425 -137.940567 145 153 153
-17.822823 6.373425 -137.940567 147 155 155
-16.293058 5.785804 -125.222641 145 153 153
-14.828982 5.229477 -113.182007 145 153 153
-13.386904 4.688497 -101.473518 146 151 152
-12.215215 4.248950 -91.960381 146 151 152
-11.352507 3.922108 -84.886505 146 151 152
-10.708654 3.674767 -79.533302 146 151 152
-10.141191 3.456773 -74.815224 146 150 151
-9.560799 3.237295 -70.065048 146 149 153
-9.016065 3.032708 -65.637146 148 151 156
-8.536088 2.852442 -61.735638 146 149 154
-8.109971 2.692404 -58.271923 146 151 154
-7.729129 2.549370 -55.176228 147 152 155
-7.430810 2.435219 -52.705650 145 152 155
-7.178571 2.337531 -50.591381 146 153 156
-6.851417 2.216843 -47.979328 147 155 155
-6.894895 2.216843 -47.979328 145 153 153
-6.938373 2.216843 -47.979328 147 152 153
-6.981851 2.216843 -47.979328 145 150 151
15.354674 4.254247 -93.916985 0 0 0
14.873983 4.144033 -91.483902 0 0 0
14.273394 3.998992 -88.281960 0 0 0
14.052865 3.959398 -87.407883 0 0 0
13.904821 3.939893 -86.977303 0 0 0
14.103913 4.019087 -88.725594 0 0 0
13.953394 3.998992 -88.281960 2 1 3
8.418257 2.483846 -54.833519 124 129 130
8.291319 2.460918 -54.327362 120 128 128
8.020117 2.409031 -53.181904 120 128 128
7.761521 2.345450 -51.778278 121 129 129
7.194091 2.227851 -49.182152 123 131 131
6.974670 2.173365 -47.979328 124 132 132
6.626844 2.173365 -47.979328 123 131 131
6.583366 2.173365 -47.979328 121 129 129
18.052177 6.248425 -137.940567 122 132 132
17.927177 6.248425 -137.940567 123 133 133
17.802177 6.248425 -137.940567 123 133 133
17.677177 6.248425 -137.940567 123 133 133
14.871191 5.331989 -117.709282 127 132 133
13.670856 4.937027 -108.990074 128 132 133
11.136116 4.080604 -90.083633 128 133 134
10.416724 3.845185 -84.886505 128 133 134
9.644300 3.586540 -79.176651 129 134 135
8.820987 3.304952 -72.960297 126 131 132
8.308544 3.136464 -69.240753 128 133 134
7.845816 2.984322 -65.882065 128 133 134
7.195444 2.757926 -60.884113 130 134 135
6.658131 2.571699 -56.772968 128 132 133
6.283421 2.445867 -53.995083 130 135 136
6.013802 2.359287 -52.083755 128 133 134
5.746247 2.272155 -50.160206 128 133 134
5.452931 2.173365 -47.979328 129 134 135
5.409453 2.173365 -47.979328 129 134 135
7.677178 6.248425 -137.940567 150 135 139
7.552178 6.248425 -137.940567 147 130 133
7.427178 6.248425 -137.940567 150 133 136
7.302178 6.248425 -137.940567 151 132 135
7.177178 6.248425 -137.940567 153 134 137
6.182732 5.478071 -120.934196 154 135 138
5.341439 4.818063 -106.363808 152 133 136
4.757808 4.370483 -96.483017 156 135 138
4.382968 4.101530 -90.545601 158 135 139
3.956032 3.772634 -83.284874 161 137 139
3.561380 3.462331 -76.434601 163 136 139
3.279182 3.251213 -71.773956 163 134 137
2.972477 3.006761 -66.377419 167 138 141
2.786614 2.876973 -63.512203 166 135 138
2.607144 2.748448 -60.674889 165 134 137
2.411295 2.596748 -57.325951 167 134 138
2.242836 2.468513 -54.495037 169 136 140
2.102600 2.366267 -52.237846 171 136 140
1.929663 2.221662 -49.045536 169 134 138
1.844236 2.173365 -47.979328 174 134 139
1.800758 2.173365 -47.979328 177 137 142
1.757279 2.173365 -47.979328 173 136 138
1.496410 2.173365 -47.979328 179 138 145
1.452932 2.173365 -47.979328 181 139 146
-17.697823 6.248425 -137.940567 144 152 152
-17.822823 6.248425 -137.940567 145 153 153
-16.293058 5.672329 -125.222641 145 153 153
-14.734530 5.094257 -112.461098 144 152 152
-13.386904 4.596542 -101.473518 145 150 151
-12.215215 4.165617 -91.960381 146 151 152
-11.298188 3.826787 -84.480347 147 152 153
-10.708654 3.602695 -79.533302 147 152 153
-10.098402 3.374677 -74.499550 147 151 152
-9.560799 3.173803 -70.065048 147 151 152
-9.016065 2.973228 -65.637146 148 151 156
-8.506346 2.786754 -61.520531 146 149 154
-8.109971 2.639599 -58.271923 146 151 154
-7.705051 2.491584 -55.004337 146 151 154
-7.430810 2.387458 -52.705650 143 150 153
-7.178571 2.291686 -50.591381 144 151 154
-6.851417 2.173365 -47.979328 145 153 153
-6.894895 2.173365 -47.979328 144 152 152
-6.938373 2.173365 -47.979328 147 152 153
-6.981851 2.173365 -47.979328 146 151 152
15.436785 4.191435 -94.419212 0 0 0
14.951451 4.082283 -91.960381 0 0 0
14.345119 3.938685 -88.725594 0 0 0
14.122780 3.899495 -87.842751 0 0 0
14.247100 3.978672 -89.626358 0 0 0
14.094337 3.958578 -89.173698 1 0 2
14.013529 3.958578 -89.173698 2 1 3
8.418257 2.434156 -54.833519 123 128 129
8.265885 2.404289 -54.160713 124 132 132
8.191678 2.396937 -53.995083 124 132 132
8.020117 2.360839 -53.181904 123 131 131
7.761521 2.298529 -51.778278 122 130 130
7.234394 2.195514 -49.457684 125 133 133
6.974670 2.129887 -47.979328 120 128 128
6.583366 2.129887 -47.979328 125 133 133
18.177177 6.123425 -137.940567 122 130 130
18.052177 6.123425 -137.940567 121 131 131
17.927177 6.123425 -137.940567 122 132 132
17.802177 6.123425 -137.940567 123 133 133
17.677177 6.123425 -137.940567 123 133 133
14.970998 5.260392 -118.499283 126 131 132
11.079587 3.978672 -89.626358 129 134 133
10.317517 3.732373 -84.078056 128 133 132
9.558572 3.483548 -78.472855 129 134 133
8.748683 3.212289 -72.362267 126 131 130
8.211933 3.037978 -68.435631 129 133 134
7.702120 2.871056 -64.675430 128 132 133
7.146160 2.684241 -60.467098 130 134 135
6.679609 2.528382 -56.956104 128 132 133
6.283421 2.396937 -53.995083 130 134 135
6.013802 2.312090 -52.083755 130 134 135
5.713782 2.214120 -49.876816 129 134 135
5.452931 2.129887 -47.979328 128 133 134
5.409453 2.129887 -47.979328 128 133 134
8.529817 3.499100 -78.823181 130 135 138
3.974671 2.129887 -47.979328 161 132 135
3.931192 2.129887 -47.979328 161 130 133
7.802178 6.123425 -137.940567 145 131 135
7.677178 6.123425 -137.940567 150 135 139
7.552178 6.123425 -137.940567 147 130 133
7.427178 6.123425 -137.940567 151 134 137
7.302178 6.123425 -137.940567 151 132 135
7.177178 6.123425 -137.940567 153 134 137
6.058247 5.260392 -118.499283 153 136 140
5.341439 4.721677 -106.363808 152 132 137
4.783950 4.306585 -97.013145 156 135 138
4.382968 4.019479 -90.545601 155 132 136
3.974781 3.714684 -83.679588 157 133 135
3.576864 3.407819 -76.766922 162 135 138
3.279182 3.186172 -71.773956 164 135 138
2.972477 2.946610 -66.377419 169 140 143
2.786614 2.819419 -63.512203 164 136 136
2.598215 2.684241 -60.467098 164 136 136
2.403491 2.536564 -57.140430 167 136 137
2.235935 2.411687 -54.327362 169 137 138
2.096398 2.312090 -52.083755 171 136 140
1.929663 2.177218 -49.045536 171 136 140
1.844236 2.129887 -47.979328 177 137 142
1.800758 2.129887 -47.979328 177 140 144
1.757279 2.129887 -47.979328 171 137 138
1.713801 2.129887 -47.979328 175 141 142
1.539888 2.129887 -47.979328 181 140 147
1.496410 2.129887 -47.979328 179 137 144
-5.766444 2.214120 -49.876816 147 150 154
-5.590547 2.129887 -47.979328 147 150 154
-17.697823 6.123425 -137.940567 146 154 154
-17.822823 6.123425 -137.940567 147 155 155
-16.293058 5.558854 -125.222641 145 153 153
-14.734530 4.992346 -112.461098 144 152 152
-13.386904 4.504589 -101.473518 145 150 151
-12.215215 4.082283 -91.960381 146 151 152
-11.298188 3.750232 -84.480347 147 152 153
-10.708654 3.530623 -79.533302 146 151 152
-10.098402 3.307166 -74.499550 148 152 153
-9.560799 3.110311 -70.065048 149 153 154
-9.016065 2.913749 -65.637146 147 150 155
-8.536088 2.740554 -61.735638 146 149 154
-8.109971 2.586793 -58.271923 146 151 154
-7.705051 2.441740 -55.004337 146 151 154
-7.408694 2.332733 -52.548786 143 150 153
-7.158061 2.239424 -50.446835 143 150 153
-6.851417 2.129887 -47.979328 147 152 153
-6.894895 2.129887 -47.979328 146 151 152
-6.938373 2.129887 -47.979328 147 152 153
-6.981851 2.129887 -47.979328 145 150 151
15.436785 4.105874 -94.419212 0 0 0
14.873983 3.978230 -91.483902 0 0 0
14.273394 3.838992 -88.281960 0 0 0
14.122780 3.819893 -87.842751 0 0 0
14.247100 3.897454 -89.626358 0 0 0
14.094337 3.877770 -89.173698 0 0 1
14.013529 3.877770 -89.173698 0 0 1
14.368118 3.998950 -91.960381 133 135 136
8.418257 2.384467 -54.833519 122 127 128
8.265885 2.355210 -54.160713 120 128 128
8.166703 2.340849 -53.830463 123 131 131
7.996032 2.305701 -53.022202 124 132 132
7.738827 2.245025 -51.626881 122 130 130
7.603117 2.219070 -51.030037 121 129 129
7.234394 2.150696 -49.457684 121 129 129
6.974670 2.086409 -47.979328 121 129 129
6.774107 2.132773 -49.045536 125 133 133
6.583366 2.086409 -47.979328 123 131 131
18.052177 5.998425 -137.940567 121 131 131
17.927177 5.998425 -137.940567 122 132 132
17.802177 5.998425 -137.940567 120 132 132
17.552177 5.998425 -137.940567 124 132 132
14.970998 5.153009 -118.499283 126 131 132
14.016953 4.859484 -111.749321 126 131 132
12.563878 4.387419 -100.893669 127 131 132
11.023630 3.877770 -89.173698 130 134 135
10.268620 3.638855 -83.679588 125 130 129
9.432801 3.367537 -77.440315 127 132 131
8.712975 3.133871 -72.066910 127 132 131
8.148765 2.953071 -67.909203 132 136 137
7.702120 2.812448 -64.675430 127 131 132
7.170717 2.638483 -60.674889 130 134 135
6.679609 2.476769 -56.956104 131 136 137
6.264265 2.340849 -53.830463 129 133 134
5.978530 2.251608 -51.778278 130 135 136
11.967751 4.653324 -107.008438 129 134 135
9.045441 3.604687 -82.893860 128 133 136
8.684904 3.489993 -80.256332 128 133 136
3.931192 2.086409 -47.979328 171 134 136
7.802178 5.998425 -137.940567 143 129 133
7.677178 5.998425 -137.940567 149 134 138
7.552178 5.998425 -137.940567 149 132 135
7.427178 5.998425 -137.940567 155 138 141
7.302178 5.998425 -137.940567 152 133 136
7.177178 5.998425 -137.940567 152 133 136
6.099181 5.187827 -119.299950 150 133 136
5.341439 4.625291 -106.363808 150 133 136
4.757808 4.195620 -96.483017 157 138 141
4.360606 3.917339 -90.083633 156 135 138
3.974781 3.638855 -83.679588 157 135 137
3.561380 3.323803 -76.434601 161 137 139
3.252737 3.095961 -71.195129 161 134 137
2.961344 2.875649 -66.128815 165 136 139
2.776627 2.751966 -63.284561 165 136 139
2.580540 2.611559 -60.055756 166 138 138
2.395738 2.476769 -56.956104 168 137 138
2.229076 2.355210 -54.160713 166 134 135
2.084102 2.251608 -51.778278 167 132 136
1.887714 2.086409 -47.979328 168 133 137
1.800758 2.086409 -47.979328 171 134 138
1.757279 2.086409 -47.979328 173 139 140
1.713801 2.086409 -47.979328 172 138 139
1.539888 2.086409 -47.979328 175 134 141
1.496410 2.086409 -47.979328 181 139 146
-5.766444 2.168922 -49.876816 148 151 155
-5.590547 2.086409 -47.979328 148 151 155
-17.697823 5.998425 -137.940567 144 152 152
-17.822823 5.998425 -137.940567 145 153 153
-16.409437 5.484274 -126.117088 146 154 154
-14.828982 4.921784 -113.182007 144 152 152
-13.386904 4.412634 -101.473518 146 151 152
-12.279169 4.019887 -92.441849 146 151 152
-11.352507 3.691339 -84.886505 146 151 152
-10.708654 3.458551 -79.533302 147 151 152
-10.098402 3.239656 -74.499550 148 152 153
-9.560799 3.046819 -70.065048 149 152 156
-9.016065 2.854269 -65.637146 148 151 155
-8.536088 2.684610 -61.735638 147 150 155
-8.109971 2.533988 -58.271923 148 153 156
-7.705051 2.391895 -55.004337 148 153 156
-7.408694 2.285114 -52.548786 147 152 155
-7.137668 2.187460 -50.303112 147 152 155
-6.851417 2.086409 -47.979328 148 153 154
-6.894895 2.086409 -47.979328 148 153 154
-6.938373 2.086409 -47.979328 147 152 153
-6.981851 2.086409 -47.979328 145 150 151
15.354674 3.998928 -93.916985 0 0 0
14.721429 3.855376 -90.545601 0 0 0
14.273394 3.758992 -88.281960 0 0 0
14.052865 3.721774 -87.407883 0 0 0
13.904821 3.703440 -86.977303 3 1 1
13.953394 3.758992 -88.281960 0 0 1
13.943110 3.777881 -88.725594 1 0 2
14.147070 3.855376 -90.545601 129 131 132
8.366292 2.320365 -54.495037 124 132 132
8.240607 2.299078 -53.995083 123 131 131
7.924639 2.237495 -52.548786 119 127 127
7.693833 2.185461 -51.326721 125 133 133
7.494811 2.141876 -50.303112 123 131 131
7.214186 2.099996 -49.319530 122 132 132
6.974670 2.042930 -47.979328 121 131 131
17.802177 5.873425 -137.940567 121 134 136
17.677177 5.873425 -137.940567 118 131 133
16.399115 5.487579 -128.878784 120 132 134
14.871191 5.011989 -117.709282 125 134 137
13.928797 4.728292 -111.046494 126 131 134
10.913394 3.758992 -88.281960 128 132 133
10.172200 3.529570 -82.893860 130 134 135
8.055813 2.858549 -67.134575 128 133 134
7.590898 2.714074 -63.741489 129 134 135
7.073487 2.548469 -59.852177 128 133 134
12.189376 4.640731 -108.990074 127 135 135
9.262879 3.614415 -84.886505 126 133 136
8.374513 5.149304 -120.934196 145 130 134
7.677178 5.873425 -137.940567 148 134 136
7.552178 5.873425 -137.940567 147 130 133
7.427178 5.873425 -137.940567 153 136 139
7.302178 5.873425 -137.940567 153 136 139
7.177178 5.873425 -137.940567 155 138 141
6.312439 5.257331 -123.471275 152 135 138
5.439747 4.612260 -108.321426 153 137 138
4.837105 4.176658 -98.091072 155 137 138
4.474758 3.936117 -92.441849 156 135 137
4.051589 3.631876 -85.296585 157 136 139
3.592484 3.282963 -77.102150 160 137 141
3.279182 3.056091 -71.773956 162 137 141
2.983694 2.836975 -66.627899 163 136 140
2.806807 2.723907 -63.972435 166 136 141
2.652723 2.628666 -61.735638 166 137 140
1.800758 2.042930 -47.979328 172 135 137
1.757279 2.042930 -47.979328 173 138 142
1.713801 2.042930 -47.979328 173 138 142
1.670323 2.042930 -47.979328 179 142 146
1.583366 2.042930 -47.979328 177 137 142
1.539888 2.042930 -47.979328 182 141 146
1.496410 2.042930 -47.979328 181 140 145
3.178832 5.447814 -127.944870 191 143 149
-17.697823 5.873425 -137.940567 148 153 156
-11.352507 3.614415 -84.886505 149 152 156
-10.708654 3.386479 -79.533302 147 148 152
-10.098402 3.172145 -74.499550 148 149 153
-9.560799 2.983327 -70.065048 145 148 152
-9.016065 2.794790 -65.637146 146 149 153
-8.536088 2.628666 -61.735638 146 151 154
-8.109971 2.481183 -58.271923 147 152 155
-7.705051 2.342051 -55.004337 148 153 156
-7.386710 2.230856 -52.392857 147 152 155
-7.137668 2.141876 -50.303112 148 151 155
-6.851417 2.042930 -47.979328 148 151 155
-6.894895 2.042930 -47.979328 149 152 156
-6.938373 2.042930 -47.979328 148 152 153
-6.981851 2.042930 -47.979328 149 153 154
15.113502 3.852348 -92.441849 0 0 0
14.571973 3.735017 -89.626358 0 0 0
14.202382 3.660689 -87.842751 0 0 0
13.983639 3.624623 -86.977303 0 0 0
13.883974 3.660689 -87.842751 0 0 1
13.873394 3.678992 -88.281960 0 0 1
14.003446 3.735017 -89.626358 121 123 124
13.922227 3.735017 -89.626358 120 125 126
7.410363 2.072672 -49.736317 120 128 128
17.677177 5.748425 -137.940567 119 132 134
16.163157 5.293514 -127.024406 120 132 134
14.579599 4.809140 -115.401260 125 134 137
10.124667 3.438310 -82.506508 130 134 135
12.114594 4.514101 -108.321426 128 136 136
8.490826 5.109711 -122.613838 147 133 137
7.677639 4.809140 -115.401260 142 135 138
6.856088 4.353837 -104.475693 145 136 139
7.677178 5.748425 -137.940567 148 134 136
7.552178 5.748425 -137.940567 152 135 138
7.427178 5.748425 -137.940567 154 137 140
7.302178 5.748425 -137.940567 151 134 137
7.177178 5.748425 -137.940567 148 131 134
6.541151 5.331872 -127.944870 152 136 137
5.683839 4.716656 -113.182007 152 136 137
5.091689 4.302915 -103.253761 155 137 138
3.756524 3.359810 -80.622795 159 136 140
3.347215 3.053105 -73.263039 161 136 140
3.100701 2.885484 -69.240753 161 136 140
2.879847 2.735310 -65.637146 167 137 142
2.729061 2.646757 -63.512203 165 135 140
2.127781 2.202989 -52.863449 173 138 142
1.984797 2.102281 -50.446835 172 137 141
1.800758 1.999452 -47.979328 173 136 138
1.757279 1.999452 -47.979328 172 137 141
1.713801 1.999452 -47.979328 173 138 142
1.670323 1.999452 -47.979328 174 137 141
1.626845 1.999452 -47.979328 174 137 141
1.583366 1.999452 -47.979328 177 136 141
1.539888 1.999452 -47.979328 177 136 141
1.496410 1.999452 -47.979328 178 137 142
3.155963 5.293514 -127.024406 187 139 145
-17.697823 5.748425 -137.940567 145 150 153
-17.822823 5.748425 -137.940567 146 151 154
-16.178318 5.181679 -124.340790 144 149 152
-14.734530 4.686614 -112.461098 146 151 154
-13.386904 4.228726 -101.473518 145 148 152
-12.343797 3.872623 -92.928383 149 152 156
-11.407350 3.554582 -85.296585 146 147 151
-10.708654 3.314407 -79.533302 150 151 155
-10.098402 3.104635 -74.499550 147 148 152
-9.560799 2.919835 -70.065048 148 149 153
-9.049706 2.745517 -65.882065 146 151 154
-8.566040 2.581749 -61.952255 146 151 154
-8.136826 2.436419 -58.464874 145 150 153
-7.729129 2.299370 -55.176228 145 150 153
-7.408694 2.189876 -52.548786 146 149 153
-7.137668 2.096292 -50.303112 147 150 154
-6.894895 1.999452 -47.979328 148 151 155
-6.938373 1.999452 -47.979328 147 149 150
-6.981851 1.999452 -47.979328 149 151 152
15.034785 3.748950 -91.960381 0 0 0
14.498378 3.635345 -89.173698 0 0 0
14.062457 3.545805 -86.977303 0 0 0
13.915092 3.528424 -86.550941 0 0 0
13.769164 3.511212 -86.128746 2 0 0
13.894449 3.563358 -87.407883 2 0 0
13.815241 3.563358 -87.407883 1 0 2
13.804372 3.581087 -87.842751 0 0 1
13.862707 3.617077 -88.725594 109 111 112
13.782305 3.617077 -88.725594 119 124 125
7.583607 2.062460 -50.591381 123 131 131
7.368848 2.016242 -49.457684 119 127 127
18.552177 5.623425 -137.940567 130 132 133
15.933891 5.104953 -125.222641 118 130 132
8.610415 5.069003 -124.340790 143 132 135
8.628107 5.215930 -127.944870 141 134 137
7.779330 4.766877 -116.929749 140 133 136
6.938197 4.310170 -105.726898 142 133 136
6.210211 3.911948 -95.958656 142 133 136
5.661703 3.617077 -88.725594 141 132 135
5.094857 3.301827 -80.992630 143 134 137
4.759473 3.129558 -76.766922 143 134 137
4.103007 2.779144 -68.171402 147 136 138
3.529722 2.465063 -60.467098 144 133 135
3.063432 2.207971 -54.160713 148 134 136
7.552178 5.623425 -137.940567 155 138 141
7.427178 5.623425 -137.940567 155 138 141
7.302178 5.623425 -137.940567 153 136 139
7.177178 5.623425 -137.940567 148 131 134
6.541151 5.215930 -127.944870 153 135 136
5.683839 4.614092 -113.182007 153 135 136
5.091689 4.209347 -103.253761 156 135 137
3.041072 2.768456 -67.909203 160 135 139
2.879847 2.675831 -65.637146 165 135 140
2.748836 2.607965 -63.972435 165 135 140
2.263797 2.242363 -55.004337 169 136 140
2.127781 2.155085 -52.863449 173 138 142
1.844236 1.955974 -47.979328 174 140 141
1.800758 1.955974 -47.979328 174 140 141
1.757279 1.955974 -47.979328 171 136 140
1.539888 1.955974 -47.979328 179 138 143
3.111197 5.104953 -125.222641 188 140 146
-5.849058 2.062460 -50.591381 145 150 151
-17.697823 5.623425 -137.940567 146 150 151
-17.822823 5.623425 -137.940567 149 153 154
-16.178318 5.069003 -124.340790 145 149 150
-14.641274 4.555686 -111.749321 145 149 150
-13.386904 4.136773 -101.473518 148 150 151
-12.343797 3.788413 -92.928383 148 150 151
-11.462725 3.494167 -85.710640 148 150 151
-10.708654 3.242335 -79.533302 148 150 151
-10.098402 3.037124 -74.499550 151 150 152
-9.523009 2.845053 -69.788116 150 152 153
-9.049706 2.685815 -65.882065 148 153 156
-8.566040 2.525609 -61.952255 145 152 155
-8.163858 2.391357 -58.659111 147 152 155
-7.753358 2.256421 -55.349194 146 151 154
-7.430810 2.148652 -52.705650 147 152 155
-7.137668 2.050708 -50.303112 147 152 155
-6.894895 1.955974 -47.979328 149 152 156
-6.938373 1.955974 -47.979328 148 152 153
-6.981851 1.955974 -47.979328 149 153 154
15.034785 3.665617 -91.960381 0 0 0
14.425521 3.536675 -88.725594 0 0 0
14.062457 3.466987 -86.977303 0 0 0
13.915092 3.449992 -86.550941 0 0 0
13.836660 3.449992 -86.550941 3 1 1
13.894449 3.484150 -87.407883 2 0 0
13.883974 3.501485 -87.842751 1 0 2
13.873394 3.518992 -88.281960 0 1 2
13.932721 3.554537 -89.173698 96 98 99
13.782305 3.536675 -88.725594 119 124 125
13.366072 3.449992 -86.550941 126 131 132
7.673426 2.028238 -50.882977 122 130 130
7.518974 1.999427 -50.160206 122 130 130
7.348265 1.965917 -49.319530 121 129 129
18.802177 5.498425 -137.940567 123 128 129
18.552177 5.498425 -137.940567 128 132 133
18.427177 5.498425 -137.940567 131 135 136
13.802178 5.498425 -137.940567 131 135 136
13.677178 5.498425 -137.940567 132 136 137
13.552178 5.498425 -137.940567 132 136 137
13.427178 5.498425 -137.940567 132 136 137
3.452932 1.912496 -47.979328 151 137 139
