ply
format ascii 1.0
element vertex 1172
property float x
property float y
property float z
property uchar red
property uchar green
property uchar blue
end_header
-1.947441 -5.477811 -110.787758 102 93 79
-1.893875 -5.168111 -104.524139 102 94 80
-1.846043 -4.891557 -98.930878 100 93 80
-1.803069 -4.643097 -93.905815 97 91 78
-1.764250 -4.418657 -89.366562 98 92 79
-1.729011 -4.214915 -85.245911 97 90 77
-1.696878 -4.029134 -81.488518 94 86 73
-1.735494 -1.264110 -25.566406 20 11 10
-1.743296 -1.259755 -25.478323 20 10 10
-1.752549 -1.256508 -25.412657 23 13 13
-1.764778 -1.255430 -25.390842 22 12 12
-1.778512 -1.255430 -25.390842 25 14 12
-1.795328 -1.257589 -25.434507 38 27 23
-1.810643 -1.258671 -25.456396 61 51 44
-1.822843 -1.257589 -25.434507 80 70 63
-1.835023 -1.256508 -25.412657 94 83 76
-1.847182 -1.255430 -25.390842 101 90 81
-1.852963 -1.250065 -25.282335 100 91 79
-1.778201 -0.724047 -14.643728 27 22 22
-1.783473 -0.722974 -14.622013 67 58 56
-1.790497 -0.722616 -14.614789 95 85 81
-1.799291 -0.722974 -14.622013 101 89 83
-1.808989 -0.723689 -14.636483 103 92 83
-1.820509 -0.725124 -14.665509 104 95 82
-1.833897 -0.727288 -14.709265 101 93 79
7.848060 -3.512056 -70.262070 89 77 76
7.810055 -3.512056 -70.262070 103 93 93
7.772050 -3.512056 -70.262070 86 76 77
7.734046 -3.512056 -70.262070 59 51 52
7.677804 -3.503734 -70.095573 21 12 15
7.639889 -3.503734 -70.095573 9 2 5
21.280222 -9.857170 -197.202209 13 7 9
19.132730 -8.907082 -178.194778 13 7 7
17.362820 -8.124042 -162.529297 9 4 2
16.040985 -7.543753 -150.920059 11 5 2
14.754873 -6.974413 -139.529861 16 9 6
13.530580 -6.428589 -128.610138 18 11 8
12.585501 -6.010470 -120.245255 21 12 12
11.755852 -5.643418 -112.902031 21 11 12
11.021702 -5.318617 -106.404076 18 7 9
10.367460 -5.029169 -100.613373 18 9 10
9.718055 -4.739024 -94.808754 12 7 6
9.167274 -4.494151 -89.909821 12 6 3
-2.784939 -10.952412 -219.113571 101 93 76
-2.779906 -10.486352 -209.789581 101 92 77
-2.582068 -9.358073 -187.217285 100 92 77
-2.436590 -8.497561 -170.001907 98 91 76
-2.327866 -7.823151 -156.509689 96 91 76
-2.235131 -7.247920 -145.001633 95 90 75
-2.145303 -6.720798 -134.456055 98 92 77
-2.067656 -6.265151 -125.340393 99 92 77
-1.999868 -5.867363 -117.382271 100 92 78
-1.940174 -5.517073 -110.374374 101 92 79
-1.887207 -5.206252 -104.156097 99 90 77
-1.839889 -4.928585 -98.601105 96 88 75
-1.797363 -4.679037 -93.608643 96 89 76
-1.758936 -4.453541 -89.097389 97 91 78
-1.724042 -4.248780 -85.000954 96 90 77
-1.692216 -4.062021 -81.264648 96 90 77
-1.663070 -3.890988 -77.842979 97 92 78
-1.636280 -3.733777 -74.697807 96 91 76
-1.611570 -3.588776 -71.796921 94 88 73
-1.736995 -1.279045 -25.588522 22 13 10
-1.744799 -1.274634 -25.500286 21 12 9
-1.754056 -1.271346 -25.434507 21 12 9
-1.766294 -1.270254 -25.412657 27 18 14
-1.780040 -1.270254 -25.412657 41 32 26
-1.795328 -1.271346 -25.434507 63 53 45
-1.810643 -1.272440 -25.456396 84 75 66
-1.822843 -1.271346 -25.434507 95 86 76
-1.835023 -1.270254 -25.412657 98 90 78
-1.848769 -1.270254 -25.412657 100 92 79
-1.849801 -1.261583 -25.239191 101 93 79
-1.787892 -0.732694 -14.658242 42 36 33
-1.793155 -0.731606 -14.636483 88 79 75
-1.801072 -0.731606 -14.636483 104 94 87
-1.810781 -0.732331 -14.650982 102 92 82
-1.823221 -0.734149 -14.687354 99 90 78
7.848060 -3.550061 -70.262070 96 85 83
7.810055 -3.550061 -70.262070 98 89 86
7.772050 -3.550061 -70.262070 84 74 75
7.734046 -3.550061 -70.262070 59 51 52
7.677804 -3.541648 -70.095573 21 12 15
7.621828 -3.533276 -69.929863 14 5 8
21.000219 -9.832734 -194.607452 12 5 8
18.904959 -8.896283 -176.073410 12 6 7
17.267941 -8.167080 -161.641159 13 7 6
15.799162 -7.510430 -148.644882 15 8 5
14.548991 -6.951514 -137.582947 16 8 5
13.472005 -6.470024 -128.053391 16 7 4
12.534548 -6.050913 -119.758430 19 9 7
11.666793 -5.661271 -112.046715 23 10 11
10.942976 -5.337770 -105.644043 21 7 9
10.297409 -5.049242 -99.933556 16 5 4
9.718055 -4.790306 -94.808754 12 6 2
9.167274 -4.542783 -89.909821 13 8 3
-2.381836 -8.396492 -166.181641 99 92 77
-2.279620 -7.743915 -153.265976 100 93 78
-2.192148 -7.185460 -142.213135 97 91 76
-2.116443 -6.702133 -132.647232 98 92 77
-2.050280 -6.279729 -124.287109 99 92 77
-1.991963 -5.907413 -116.918312 100 92 78
-1.932962 -5.556043 -109.964058 101 92 79
-1.880585 -5.244125 -103.790642 99 91 78
-1.833776 -4.965367 -98.273529 96 88 75
-1.791693 -4.714749 -93.313347 95 88 75
-1.753654 -4.488215 -88.829826 96 90 77
-1.734008 -4.319582 -85.492287 96 90 77
-1.658705 -3.922771 -77.638664 99 93 79
-1.632158 -3.764674 -74.509651 98 93 78
-1.607668 -3.618827 -71.623077 97 91 76
-1.740006 -1.295126 -25.632870 16 8 1
-1.746304 -1.289539 -25.522287 18 10 3
-1.755565 -1.286210 -25.456396 32 23 18
-1.767813 -1.285104 -25.434507 48 40 34
-1.781571 -1.285104 -25.434507 73 64 55
-1.795328 -1.285104 -25.434507 90 82 70
-1.810643 -1.286210 -25.456396 99 91 78
-1.824412 -1.286210 -25.456396 101 94 79
-1.836601 -1.285104 -25.434507 100 93 78
-1.853546 -1.287317 -25.478323 100 93 78
-2.402300 -1.452454 -28.746679 97 90 71
-1.800282 -0.742462 -14.694651 67 61 56
-1.807332 -0.742093 -14.687354 95 87 80
-1.815277 -0.742093 -14.687354 102 93 84
7.904841 -3.596608 -70.429359 85 76 73
7.866746 -3.596608 -70.429359 103 94 91
7.828650 -3.596608 -70.429359 92 83 81
7.790555 -3.596608 -70.429359 81 71 71
7.734046 -3.588065 -70.262070 58 49 49
7.677804 -3.579563 -70.095573 17 9 10
21.000219 -9.937997 -194.607452 16 8 9
18.904959 -8.991521 -176.073410 16 8 9
17.174093 -8.209650 -160.762680 15 7 7
15.720166 -7.552878 -147.901657 12 2 2
14.481635 -6.993405 -136.945984 13 2 2
13.413937 -6.511102 -127.501434 19 6 7
12.484005 -6.091031 -119.275536 21 7 9
11.666793 -5.721877 -112.046715 23 8 10
10.942976 -5.394913 -105.644043 22 6 8
10.297409 -5.103296 -99.933556 16 3 3
-2.088348 -6.683963 -130.886429 98 90 77
-1.984121 -5.947148 -116.458000 98 91 76
-1.940174 -5.636476 -110.374374 97 90 75
-1.887207 -5.318928 -104.156097 99 91 77
-1.839889 -5.035252 -98.601105 99 91 78
-1.797363 -4.780303 -93.608643 97 91 78
-1.764250 -4.563673 -89.366562 98 92 79
-1.747578 -1.314687 -25.744413 39 30 21
-1.750836 -1.306726 -25.588522 47 38 29
-1.757077 -1.301099 -25.478323 66 56 48
-1.767813 -1.298861 -25.434507 82 72 64
-1.781571 -1.298861 -25.434507 92 85 75
-1.796873 -1.299979 -25.456396 98 92 80
-1.812202 -1.301099 -25.478323 102 95 82
-1.825983 -1.301099 -25.478323 101 94 79
-2.406978 -1.470862 -28.802660 99 92 73
-2.439183 -1.480956 -29.000326 100 93 75
7.904841 -3.634704 -70.429359 90 83 80
7.866746 -3.634704 -70.429359 100 93 90
7.828650 -3.634704 -70.429359 88 79 76
7.790555 -3.634704 -70.429359 80 71 68
7.715718 -3.617478 -70.095573 57 47 47
7.659653 -3.608926 -69.929863 17 7 7
21.000219 -10.043261 -194.607452 14 6 6
18.904959 -9.086760 -176.073410 15 6 6
17.174093 -8.296606 -160.762680 15 5 4
15.720166 -7.632878 -147.901657 16 4 3
14.481635 -7.067480 -136.945984 19 6 6
13.413937 -6.580067 -127.501434 23 8 9
12.484005 -6.155547 -119.275536 23 6 7
11.666793 -5.782483 -112.046715 28 10 11
10.942976 -5.452055 -105.644043 34 16 17
-1.968620 -5.963186 -115.548172 100 93 78
-1.940174 -5.696177 -110.374374 98 91 76
-1.893875 -5.394260 -104.524139 99 91 77
-1.846043 -5.105604 -98.930878 98 90 77
-1.803069 -4.846272 -93.905815 96 89 76
-1.769596 -4.625987 -89.637367 96 90 77
-1.759971 -1.327457 -25.722029 86 77 67
-1.758592 -1.316013 -25.500286 94 85 75
-1.769335 -1.313748 -25.456396 99 90 80
-1.781571 -1.312619 -25.434507 98 91 79
-1.798421 -1.314880 -25.478323 98 92 79
-1.818467 -1.319426 -25.566406 100 93 79
-2.446378 -1.501058 -29.085873 99 92 74
7.904841 -3.672799 -70.429359 96 89 86
7.866746 -3.672799 -70.429359 94 87 85
7.828650 -3.672799 -70.429359 82 74 74
7.772050 -3.664075 -70.262070 77 70 69
7.715718 -3.655392 -70.095573 54 47 44
21.000219 -10.148523 -194.607452 13 4 1
18.904959 -9.181997 -176.073410 14 4 1
17.174093 -8.383563 -160.762680 17 5 2
15.720166 -7.712878 -147.901657 18 6 3
14.481635 -7.141553 -136.945984 19 6 3
13.413937 -6.649033 -127.501434 24 9 6
12.484005 -6.220063 -119.275536 36 18 15
11.666793 -5.843089 -112.046715 53 34 31
-1.775446 -1.332103 -25.544329 101 93 78
-1.784640 -1.328661 -25.478323 100 94 79
-1.796873 -1.327518 -25.456396 99 94 79
-2.418754 -1.509369 -28.943573 97 89 72
-2.451199 -1.519779 -29.143185 98 90 73
-7.584918 -4.445463 -85.245911 9 8 4
-7.294674 -4.249519 -81.488518 13 9 8
-7.028936 -4.070120 -78.048370 13 9 8
-6.784726 -3.905255 -74.886917 14 10 9
-6.559530 -3.753225 -71.971611 15 11 10
-6.351210 -3.612589 -69.274780 15 11 10
-6.157938 -3.482112 -66.772758 17 13 12
-5.978141 -3.360731 -64.445168 17 13 12
-5.859802 -3.275107 -62.803253 15 10 9
19.695833 -8.470519 -160.762680 101 88 85
18.040167 -7.792878 -147.901657 99 87 82
16.629784 -7.215628 -136.945984 96 84 77
15.413937 -6.717998 -127.501434 93 80 73
14.354973 -6.284579 -119.275536 96 82 78
13.424368 -5.903695 -112.046715 102 88 90
12.600119 -5.566341 -105.644043 112 98 99
11.864977 -5.265458 -99.933556 114 100 101
11.205235 -4.995434 -94.808754 112 98 98
7.904841 -3.710894 -70.429359 103 94 94
7.866746 -3.710894 -70.429359 91 83 83
7.828650 -3.710894 -70.429359 80 73 74
7.772050 -3.702080 -70.262070 73 67 68
7.697478 -3.684576 -69.929863 52 44 44
20.564316 -9.990869 -189.617508 19 13 8
20.461752 -9.990869 -189.617508 19 12 7
18.465309 -9.061486 -171.978668 21 13 7
16.808687 -8.290296 -157.342194 21 12 7
15.411927 -7.640076 -145.001633 21 10 4
14.218332 -7.084435 -134.456055 23 11 5
13.186582 -6.604134 -125.340393 34 20 13
12.285846 -6.184824 -117.382271 51 35 27
11.492661 -5.815580 -110.374374 68 50 41
-2.460897 -1.541618 -29.258490 98 90 73
-7.294674 -4.293597 -81.488518 13 10 8
-7.028936 -4.112337 -78.048370 15 11 10
-6.784726 -3.945761 -74.886917 16 12 11
-6.559530 -3.792155 -71.971611 13 9 8
-6.351210 -3.650060 -69.274780 11 7 6
-6.157938 -3.518229 -66.772758 15 11 10
-5.978141 -3.395589 -64.445168 18 14 13
24.052851 -10.359050 -194.607452 111 96 96
21.666864 -9.372474 -176.073410 107 94 92
19.695833 -8.557476 -160.762680 102 88 86
18.040167 -7.872878 -147.901657 101 86 82
16.629784 -7.289701 -136.945984 100 86 80
15.413937 -6.786963 -127.501434 101 85 79
14.354973 -6.349095 -119.275536 105 88 86
13.424368 -5.964302 -112.046715 111 93 94
12.600119 -5.623484 -105.644043 118 100 102
11.864977 -5.319512 -99.933556 118 102 103
11.205235 -5.046717 -94.808754 112 98 98
7.905292 -3.731222 -70.095573 102 92 92
7.886065 -3.740084 -70.262070 104 93 94
7.848060 -3.740084 -70.262070 90 80 82
7.810055 -3.740084 -70.262070 77 71 74
7.735303 -3.722401 -69.929863 68 62 64
7.661254 -3.704884 -69.600784 45 39 40
20.304008 -9.965668 -187.217285 22 19 11
19.229116 -9.485394 -178.194778 26 23 15
17.450731 -8.651514 -162.529297 30 24 16
15.959764 -7.952402 -149.395615 31 23 15
14.691744 -7.357830 -138.225845 35 25 16
13.600144 -6.845981 -128.610138 41 30 21
12.650541 -6.400713 -120.245255 48 35 24
11.816920 -6.009830 -112.902031 53 40 26
11.079256 -5.663941 -106.404076 57 44 27
10.750994 -5.524827 -103.790642 61 47 29
-2.475589 -1.566742 -29.433167 101 92 78
-7.294674 -4.337674 -81.488518 14 10 8
-7.028936 -4.154553 -78.048370 18 14 14
-6.784726 -3.986267 -74.886917 20 15 16
-6.559530 -3.831084 -71.971611 16 11 12
-6.351210 -3.687531 -69.274780 14 9 9
-6.157938 -3.554347 -66.772758 17 13 12
-5.978141 -3.430448 -64.445168 19 15 12
-5.872270 -3.350161 -62.936878 19 14 11
154.561325 -63.623024 -1183.213257 83 71 71
27.000244 -11.695409 -217.502441 116 98 99
24.052851 -10.464313 -194.607452 109 93 94
21.666864 -9.467711 -176.073410 105 90 90
19.695833 -8.644432 -160.762680 99 85 83
18.040167 -7.952878 -147.901657 98 83 81
16.629784 -7.363776 -136.945984 97 82 80
15.413937 -6.855929 -127.501434 100 84 82
14.354973 -6.413611 -119.275536 107 89 89
13.424368 -6.024908 -112.046715 116 97 99
12.600119 -5.680627 -105.644043 118 99 102
11.864977 -5.373566 -99.933556 116 100 101
11.205235 -5.097999 -94.808754 110 97 97
7.905292 -3.769136 -70.095573 105 95 95
7.867377 -3.769136 -70.095573 97 87 89
7.829463 -3.769136 -70.095573 84 75 79
7.791548 -3.769136 -70.095573 73 67 74
7.717060 -3.751358 -69.764931 61 57 62
7.625371 -3.725001 -69.274780 39 37 38
19.325500 -9.581780 -178.194778 23 21 13
18.136553 -9.037361 -168.070068 28 25 17
16.541840 -8.284247 -154.064224 31 27 20
15.192468 -7.646998 -142.213135 37 31 23
14.035863 -7.100784 -132.055054 39 32 23
13.033472 -6.627398 -123.251381 43 34 24
12.156380 -6.213186 -115.548172 44 35 24
11.382475 -5.847704 -108.751221 53 43 28
10.694560 -5.522832 -102.709488 61 50 32
-6.564759 -6.070899 -112.902031 94 90 75
-6.244485 -5.721495 -106.404076 96 91 76
-5.959071 -5.410121 -100.613373 97 91 76
-5.703119 -5.130889 -95.420425 101 94 79
-5.472291 -4.879066 -90.737213 103 95 81
-5.263061 -4.650806 -86.492195 100 91 78
-5.072533 -4.442948 -82.626625 96 88 75
-4.898307 -4.252876 -79.091797 94 86 73
-4.738377 -4.078399 -75.847008 101 93 80
-4.591051 -3.917674 -72.857964 98 91 76
-4.454897 -3.769136 -70.095573 95 88 73
-4.328691 -3.631451 -67.535004 99 92 77
-4.211380 -3.503470 -65.154915 102 93 79
-4.102057 -3.384203 -62.936878 101 92 78
-3.999932 -3.272789 -60.864880 95 86 72
-3.904316 -3.168477 -58.924965 98 89 76
-3.814608 -3.070609 -57.104889 100 91 78
-3.730275 -2.978606 -55.393879 99 90 76
-3.650849 -2.891956 -53.782421 102 93 79
-3.575913 -2.810204 -52.262070 103 94 78
-3.505098 -2.732948 -50.825314 104 97 78
-3.438071 -2.659825 -49.465439 104 97 79
-3.374539 -2.590514 -48.176437 100 94 78
-3.314233 -2.524723 -46.952908 99 93 79
-3.256915 -2.462191 -45.789989 99 93 80
-3.202367 -2.402682 -44.683281 99 93 80
-3.150393 -2.345982 -43.628807 100 94 81
-3.100817 -2.291896 -42.622955 100 95 81
-3.053474 -2.240247 -41.662441 99 94 80
-3.008219 -2.190876 -40.744259 99 94 79
-2.964915 -2.143633 -39.865677 101 94 80
-2.923439 -2.098385 -39.024185 99 91 78
-2.883678 -2.055007 -38.217484 99 91 78
-2.845528 -2.013387 -37.443459 98 90 77
-2.808892 -1.973419 -36.700165 98 90 77
-2.773682 -1.935007 -35.985806 96 88 75
-2.739817 -1.898062 -35.298725 97 88 78
-2.707221 -1.862501 -34.637390 98 89 79
-2.675824 -1.828248 -34.000381 96 88 79
-2.645561 -1.795232 -33.386379 96 89 80
-2.616371 -1.763388 -32.794159 97 90 80
-2.588199 -1.732653 -32.222584 97 91 80
-2.560992 -1.702972 -31.670591 99 92 79
-2.534702 -1.674290 -31.137192 101 93 80
-2.509282 -1.646559 -30.621462 101 92 79
-2.484691 -1.619731 -30.122538 100 91 77
-2.460889 -1.593763 -29.639612 100 91 77
-2.437837 -1.568615 -29.171925 102 93 79
-2.487967 -1.590576 -29.580332 102 93 79
-2.526707 -1.605021 -29.848972 101 92 78
-2.558342 -1.614797 -30.030794 100 91 77
-7.355464 -4.418265 -82.167587 14 10 9
-7.085018 -4.230254 -78.671097 21 16 17
-6.836650 -4.057590 -75.460030 25 20 21
-6.607762 -3.898469 -72.500816 23 18 19
-6.396148 -3.751358 -69.764931 19 15 14
-6.199924 -3.614944 -67.228027 18 14 13
-6.017471 -3.488104 -64.869148 17 13 10
242.502075 -100.410973 -1848.770752 85 73 71
241.502075 -100.410973 -1848.770752 84 72 72
7.886603 -3.798051 -69.929863 94 86 88
7.848778 -3.798051 -69.929863 89 81 84
7.810953 -3.798051 -69.929863 77 70 76
7.773128 -3.798051 -69.929863 65 61 70
7.717060 -3.789093 -69.764931 53 51 59
18.022659 -9.025705 -166.181641 18 17 13
16.625174 -8.367581 -154.064224 21 20 15
15.269390 -7.723921 -142.213135 30 27 22
14.107291 -7.172212 -132.055054 30 27 22
-6.991735 -6.530795 -120.245255 96 92 77
-6.625827 -6.131968 -112.902031 98 93 78
-6.302039 -5.779049 -106.404076 102 95 80
-6.013493 -5.464543 -100.613373 103 96 81
-5.754732 -5.182502 -95.420425 103 95 81
-5.521370 -4.928146 -90.737213 102 93 80
-5.309844 -4.697589 -86.492195 101 92 81
-5.117226 -4.487641 -82.626625 100 93 81
-4.941088 -4.295657 -79.091797 99 93 80
-4.779402 -4.119424 -75.847008 94 88 75
-4.630460 -3.957083 -72.857964 96 89 76
-4.492812 -3.807051 -70.095573 99 91 78
-4.365221 -3.667981 -67.535004 100 92 79
-4.246623 -3.538713 -65.154915 100 92 79
-4.032854 -3.305711 -60.864880 99 91 79
-3.936189 -3.200350 -58.924965 99 91 78
-3.845496 -3.101497 -57.104889 99 92 78
-3.760237 -3.008569 -55.393879 100 93 78
-3.686643 -2.926367 -53.880386 99 92 75
-3.610561 -2.843497 -52.354568 100 94 75
-3.532589 -2.760439 -50.825314 100 94 76
-3.464828 -2.686581 -49.465439 100 94 79
-3.400597 -2.616573 -48.176437 99 93 81
-3.173992 -2.369581 -43.628807 100 94 82
-3.123872 -2.314950 -42.622955 102 96 84
-3.080348 -2.265974 -41.721203 99 93 81
-3.034437 -2.215966 -40.800457 97 89 78
-2.865781 -2.033640 -37.443459 103 94 84
-2.828743 -1.993270 -36.700165 101 92 82
-2.793147 -1.954471 -35.985806 101 92 82
-2.758910 -1.917155 -35.298725 99 90 80
-2.725956 -1.881236 -34.637390 99 92 81
-2.694215 -1.846639 -34.000381 99 93 82
-2.663620 -1.813291 -33.386379 98 92 81
-2.634109 -1.781126 -32.794159 98 92 81
-2.605628 -1.750082 -32.222584 100 93 80
-2.578123 -1.720102 -31.670591 102 94 81
-2.551544 -1.691132 -31.137192 101 93 80
-2.525846 -1.663122 -30.621462 100 92 79
-2.500984 -1.636024 -30.122538 99 91 77
-2.476921 -1.609795 -29.639612 100 91 77
-2.495453 -1.611410 -29.669340 100 91 77
-2.558342 -1.631041 -30.030794 101 92 78
-2.571975 -1.629387 -30.000338 99 90 76
-7.355464 -4.462710 -82.167587 14 10 10
-7.085018 -4.272807 -78.671097 20 15 16
-6.836650 -4.098407 -75.460030 23 18 20
-6.607762 -3.937685 -72.500816 29 24 25
-6.396148 -3.789093 -69.764931 24 20 20
-6.199924 -3.651308 -67.228027 14 10 9
-6.017471 -3.523192 -64.869148 17 12 10
-5.847387 -3.403762 -62.670197 23 18 15
242.502075 -101.410973 -1848.770752 88 76 74
241.502075 -101.410973 -1848.770752 87 75 75
240.502075 -101.410973 -1848.770752 90 78 78
159.668045 -67.607315 -1232.513794 89 77 79
238.502075 -101.410973 -1848.770752 87 76 78
158.334717 -67.607315 -1232.513794 93 81 85
94.600830 -40.564388 -739.508301 97 83 87
67.286308 -28.974564 -528.220215 100 86 89
52.111572 -22.535772 -410.837952 103 89 91
42.454922 -18.438358 -336.140137 110 94 95
35.769550 -15.601688 -284.426270 114 97 98
30.866943 -13.521463 -246.502762 116 98 97
27.117891 -11.930702 -217.502441 116 99 97
24.158113 -10.674839 -194.607452 112 97 95
21.762102 -9.658188 -176.073410 110 95 96
19.782789 -8.818345 -160.762680 103 89 91
18.120167 -8.112878 -147.901657 99 84 88
16.703857 -7.511924 -136.945984 96 82 87
15.482902 -6.993860 -127.501434 100 86 92
14.419489 -6.542644 -119.275536 109 94 102
13.484974 -6.146120 -112.046715 113 99 104
12.657262 -5.794913 -105.644043 117 103 105
11.919031 -5.481674 -99.933556 119 103 104
11.256516 -5.200562 -94.808754 116 100 101
10.658638 -4.946877 -90.183937 110 96 97
7.868003 -3.826829 -69.764931 91 84 86
7.830267 -3.826829 -69.764931 77 70 74
14.727424 -7.375343 -134.456055 6 8 8
16.202188 -8.194826 -149.395615 9 9 8
14.846666 -7.546863 -137.582947 10 10 9
13.749062 -7.024137 -128.053391 16 14 13
12.793656 -6.569132 -119.758430 15 13 12
11.954499 -6.169489 -112.472748 16 14 13
11.211589 -5.815683 -106.022697 21 16 15
10.549265 -5.500256 -100.272308 23 18 15
9.955091 -5.217285 -95.113609 27 22 17
9.419062 -4.962005 -90.459732 32 25 18
242.502075 -102.410973 -1848.770752 89 76 75
241.502075 -102.410973 -1848.770752 87 75 75
240.502075 -102.410973 -1848.770752 89 77 78
159.668045 -68.273979 -1232.513794 89 78 80
238.502075 -102.410973 -1848.770752 90 79 81
158.334717 -68.273979 -1232.513794 93 82 85
94.600830 -40.964390 -739.508301 102 88 92
14.419489 -6.607160 -119.275536 110 98 110
13.484974 -6.206726 -112.046715 113 102 111
12.657262 -5.852056 -105.644043 115 103 106
11.919031 -5.535728 -99.933556 113 100 102
11.256516 -5.251845 -94.808754 109 96 98
10.658638 -4.995657 -90.183937 108 94 96
7.723579 -3.775520 -68.157448 100 94 96
7.831064 -3.846421 -69.437401 82 80 82
14.867731 -7.482080 -135.070007 17 18 22
14.794672 -7.482080 -135.070007 6 7 10
16.040167 -8.192878 -147.901657 7 9 11
14.777931 -7.585998 -136.945984 9 10 14
13.689798 -7.062826 -127.501434 13 12 16
12.742069 -6.607160 -119.275536 14 13 17
11.909217 -6.206726 -112.046715 16 13 19
11.171547 -5.852056 -105.644043 20 16 22
10.513626 -5.535728 -99.933556 20 16 22
9.923183 -5.251845 -94.808754 22 18 23
9.390346 -4.995657 -90.183937 23 19 23
-1.184133 -1.138690 -20.556171 99 93 78
-1.182108 -1.126169 -20.330126 102 95 80
-1.180127 -1.113919 -20.108995 100 93 78
-1.178189 -1.101934 -19.892624 98 91 77
-1.176292 -1.090203 -19.680861 100 92 79
-1.174435 -1.078720 -19.473557 102 93 82
-1.172617 -1.067476 -19.270575 101 92 82
-1.170836 -1.056464 -19.071781 101 92 83
-1.169092 -1.045677 -18.877047 101 94 83
-1.167383 -1.035108 -18.686249 100 94 83
-1.165708 -1.024750 -18.499269 99 93 82
-1.164066 -1.014598 -18.315994 100 93 80
-1.162457 -1.004645 -18.136316 98 90 77
-1.161584 -0.995489 -17.971041 98 90 77
-1.160028 -0.985906 -17.798033 100 92 79
-1.158502 -0.976505 -17.628326 102 93 82
-1.156323 -0.966711 -17.451523 102 93 83
-1.155536 -0.958231 -17.298439 100 91 81
-1.154094 -0.949349 -17.138083 99 91 79
-1.152679 -0.940629 -16.980673 99 91 78
-1.151289 -0.932068 -16.826128 98 91 77
-1.149277 -0.923141 -16.664976 99 92 77
-1.147303 -0.914384 -16.506882 99 92 77
-1.145999 -0.906292 -16.360804 96 90 78
-1.144091 -0.897850 -16.208401 94 88 79
-1.142839 -0.890046 -16.067535 98 92 83
-1.142223 -0.882853 -15.937679 99 92 83
-1.141008 -0.875307 -15.801459 99 92 82
-1.139210 -0.867430 -15.659255 99 93 82
-1.138040 -0.860145 -15.527734 98 92 81
-1.136934 -0.846809 -15.286993 99 91 81
-1.135811 -0.839864 -15.161626 101 92 82
-1.134706 -0.833033 -15.038298 99 90 80
-1.133619 -0.826311 -14.916960 98 89 79
-1.132550 -0.819698 -14.797565 98 89 79
-1.131497 -0.813189 -14.680065 99 90 80
-1.130461 -0.806783 -14.564418 101 92 82
242.502075 -103.410973 -1848.770752 93 78 77
241.502075 -103.410973 -1848.770752 90 77 77
240.502075 -103.410973 -1848.770752 91 79 80
159.668045 -68.940651 -1232.513794 92 81 83
7.688149 -3.794898 -67.844795 87 83 85
7.776301 -3.856819 -68.951820 71 71 74
7.757087 -3.865831 -69.112923 61 64 68
7.701709 -3.856819 -68.951820 59 61 65
14.935932 -7.589796 -135.689590 12 12 16
14.931028 -7.624772 -136.314896 6 7 11
15.726992 -8.071100 -144.294296 5 6 10
16.040167 -8.272878 -147.901657 7 8 12
14.777931 -7.660072 -136.945984 9 9 15
13.689798 -7.131791 -127.501434 11 10 17
12.742069 -6.671676 -119.275536 12 11 20
11.909217 -6.267332 -112.046715 13 12 21
11.171547 -5.909198 -105.644043 15 14 24
10.513626 -5.589782 -99.933556 17 15 26
9.923183 -5.303127 -94.808754 20 16 28
9.390346 -5.044438 -90.183937 21 17 29
8.907073 -4.809813 -85.989334 21 17 28
-1.190012 -1.177634 -21.053617 101 93 80
-1.187873 -1.164374 -20.816561 100 93 78
-1.185781 -1.151410 -20.584782 100 93 78
-1.183735 -1.138731 -20.358109 100 93 78
-1.181734 -1.126328 -20.136374 99 92 77
-1.179776 -1.114192 -19.919416 98 90 77
-1.177859 -1.102316 -19.707083 99 91 78
-1.175983 -1.090689 -19.499229 101 92 81
-1.174147 -1.079306 -19.295715 101 91 81
-1.172348 -1.068157 -19.096405 99 90 81
-1.170586 -1.057237 -18.901171 100 92 83
-1.168859 -1.046537 -18.709887 100 94 83
-1.167168 -1.036052 -18.522436 97 91 80
-1.166232 -1.026412 -18.350082 98 90 78
-1.164599 -1.016324 -18.169737 100 92 79
-1.138040 -0.868544 -15.527734 98 92 81
-1.138075 -0.862207 -15.414452 94 88 77
-1.137522 -0.855520 -15.294898 94 86 76
-1.136976 -0.848936 -15.177184 96 87 77
-1.135861 -0.842023 -15.053604 99 90 80
-1.134764 -0.835222 -14.932020 99 90 80
-1.133684 -0.828531 -14.812385 99 90 80
-1.132621 -0.821945 -14.694651 100 92 80
-1.131576 -0.815464 -14.578773 100 91 80
-156.497925 -103.410973 -1848.770752 99 92 77
-157.497925 -103.410973 -1848.770752 101 92 78
242.502075 -104.410973 -1848.770752 98 83 81
241.502075 -104.410973 -1848.770752 96 82 83
240.502075 -104.410973 -1848.770752 96 84 84
239.502075 -104.410973 -1848.770752 95 84 86
159.001389 -69.607315 -1232.513794 100 89 92
95.000832 -41.764389 -739.508301 105 91 97
67.572021 -29.831707 -528.220215 104 91 97
7.653044 -3.814100 -67.535004 78 76 78
7.686712 -3.849252 -68.157448 66 68 72
7.685262 -3.867073 -68.472992 59 63 68
7.612980 -3.849252 -68.157448 57 60 64
14.935932 -7.663191 -135.689590 11 10 10
14.862537 -7.663191 -135.689590 9 8 10
15.960364 -8.311321 -147.165833 5 4 9
14.709830 -7.698505 -136.314896 6 5 12
13.631043 -7.169852 -126.954216 7 6 16
12.690896 -6.709139 -118.796516 8 7 17
11.864276 -6.304059 -111.623894 9 8 18
11.131791 -5.945109 -105.268089 11 9 21
10.478227 -5.624834 -99.597076 11 10 23
9.891479 -5.337302 -94.505852 15 12 27
9.361803 -5.077737 -89.909821 16 13 29
8.881256 -4.842248 -85.740089 17 14 29
-154.497925 -104.410973 -1848.770752 97 89 76
-155.497925 -104.410973 -1848.770752 98 90 77
-156.497925 -104.410973 -1848.770752 100 92 79
-157.497925 -104.410973 -1848.770752 99 91 77
242.502075 -105.410973 -1848.770752 99 84 82
241.502075 -105.410973 -1848.770752 97 83 84
240.502075 -105.410973 -1848.770752 99 85 87
239.502075 -105.410973 -1848.770752 100 86 90
238.502075 -105.410973 -1848.770752 105 91 96
95.000832 -42.164391 -739.508301 106 89 98
67.572021 -30.117420 -528.220215 107 93 101
68.509697 -30.665010 -537.824219 111 101 109
7.618257 -3.833126 -67.228027 74 74 76
7.633943 -3.859441 -67.689545 64 67 72
7.597330 -3.859441 -67.689545 64 67 74
7.543455 -3.850629 -67.535004 69 71 75
15.009327 -7.736585 -135.689590 45 41 40
14.935932 -7.736585 -135.689590 14 10 10
14.862537 -7.736585 -135.689590 14 11 12
15.960561 -8.349384 -146.437286 11 8 11
14.990809 -7.881194 -138.225845 6 5 9
13.878406 -7.332937 -128.610138 6 4 11
12.910704 -6.855998 -120.245255 6 5 14
12.061195 -6.437311 -112.902031 8 7 16
11.309472 -6.066819 -106.404076 8 8 17
10.639568 -5.736651 -100.613373 9 10 20
10.038816 -5.440567 -95.420425 10 10 21
9.497034 -5.173545 -90.737213 12 12 25
9.005945 -4.931508 -86.492195 14 13 30
8.558752 -4.711105 -82.626625 16 14 32
8.171671 -4.521650 -79.303841 18 18 32
-153.497925 -105.410973 -1848.770752 99 91 78
-154.497925 -105.410973 -1848.770752 98 90 77
-155.497925 -105.410973 -1848.770752 99 91 78
-156.497925 -105.410973 -1848.770752 100 92 79
-157.497925 -105.410973 -1848.770752 99 92 78
242.502075 -106.410973 -1848.770752 98 85 83
241.502075 -106.410973 -1848.770752 100 85 86
240.502075 -106.410973 -1848.770752 101 87 89
239.502075 -106.410973 -1848.770752 104 89 93
238.502075 -106.410973 -1848.770752 108 93 98
95.000832 -42.564388 -739.508301 105 88 97
67.572021 -30.403135 -528.220215 106 93 100
7.418575 -3.750166 -65.154915 79 74 75
7.583786 -3.851981 -66.923828 70 68 71
7.581893 -3.869490 -67.228027 61 62 67
7.545530 -3.869490 -67.228027 69 71 79
7.509166 -3.869490 -67.228027 75 77 80
15.009327 -7.809979 -135.689590 37 33 29
14.935932 -7.809979 -135.689590 13 8 7
14.862537 -7.809979 -135.689590 11 6 7
16.120167 -8.512877 -147.901657 12 7 9
14.852006 -7.882294 -136.945984 9 5 10
13.758764 -7.338688 -127.501434 8 5 9
12.806585 -6.865224 -119.275536 6 6 10
11.969823 -6.449150 -112.046715 5 6 10
11.228690 -6.080627 -105.644043 6 8 12
10.567679 -5.751945 -99.933556 7 10 14
9.974465 -5.456973 -94.808754 6 9 15
9.439126 -5.190779 -90.183937 6 9 17
8.953585 -4.949347 -85.989334 9 10 22
8.511204 -4.729377 -82.167587 11 12 26
-151.497925 -106.410973 -1848.770752 98 90 76
-152.497925 -106.410973 -1848.770752 99 91 78
-153.497925 -106.410973 -1848.770752 99 93 80
-154.497925 -106.410973 -1848.770752 99 93 80
-155.497925 -106.410973 -1848.770752 98 92 79
-156.497925 -106.410973 -1848.770752 97 91 78
241.502075 -107.410973 -1848.770752 103 89 90
240.502075 -107.410973 -1848.770752 108 92 93
239.502075 -107.410973 -1848.770752 107 93 95
146.770508 -66.099060 -1137.705078 111 95 100
90.476982 -40.918465 -704.293640 109 94 101
65.241951 -29.630613 -510.005737 106 94 102
8.289935 -4.151149 -71.450081 107 94 94
8.000078 -4.024767 -69.274780 107 97 94
7.692383 -3.888180 -66.923828 98 91 89
7.388719 -3.752348 -64.585876 82 78 79
7.418575 -3.785409 -65.154915 70 69 71
7.549624 -3.870666 -66.622368 62 61 65
7.547586 -3.888180 -66.923828 62 62 69
7.511387 -3.888180 -66.923828 78 77 85
7.458314 -3.879403 -66.772758 76 74 76
15.078494 -7.919703 -136.314896 35 29 25
14.935932 -7.883374 -135.689590 12 7 5
14.931028 -7.919703 -136.314896 9 4 3
15.881937 -8.465890 -145.715927 11 5 6
14.715749 -7.883374 -135.689590 12 8 10
13.641168 -7.344340 -126.411674 10 8 10
12.704133 -6.874302 -118.321327 8 8 9
11.879824 -6.460810 -111.204254 5 7 8
11.149054 -6.094240 -104.894791 5 9 10
10.496756 -5.767032 -99.262856 7 11 13
9.910933 -5.473171 -94.204880 5 8 13
9.381919 -5.207805 -89.637367 4 7 15
8.901830 -4.966981 -85.492287 7 9 19
8.464180 -4.747447 -81.713623 12 14 25
8.063580 -4.546496 -78.254845 17 19 30
-150.497925 -107.410973 -1848.770752 98 91 76
-151.497925 -107.410973 -1848.770752 98 91 77
-152.497925 -107.410973 -1848.770752 102 94 81
-153.497925 -107.410973 -1848.770752 100 92 79
-154.497925 -107.410973 -1848.770752 103 95 82
-155.497925 -107.410973 -1848.770752 103 95 82
-156.497925 -107.410973 -1848.770752 101 93 80
-104.998619 -71.607315 -1232.513794 100 93 78
241.502075 -108.410973 -1848.770752 106 93 93
240.502075 -108.410973 -1848.770752 106 93 91
239.502075 -108.410973 -1848.770752 112 99 98
119.251038 -54.205486 -924.385376 114 99 101
79.167358 -36.136990 -616.256897 117 101 105
59.125519 -27.102743 -462.192688 107 98 101
47.100414 -21.682194 -369.754150 84 82 84
7.402271 -3.812254 -65.011719 61 66 69
7.498956 -3.880482 -66.175240 62 65 70
7.513588 -3.906702 -66.622368 64 66 72
7.477552 -3.906702 -66.622368 78 74 82
7.408146 -3.889183 -66.323616 78 72 75
15.078494 -7.993436 -136.314896 26 20 15
15.004762 -7.993436 -136.314896 14 9 4
15.069921 -8.067793 -137.582947 11 7 2
15.575040 -8.379592 -142.900162 11 7 4
14.515987 -7.848758 -133.847656 10 7 4
13.468494 -7.318884 -124.811531 13 12 10
12.553491 -6.856030 -116.918312 10 11 10
11.747335 -6.448236 -109.964058 5 8 9
11.031695 -6.086230 -103.790642 6 9 11
10.392137 -5.762710 -98.273529 7 10 15
9.817140 -5.471847 -93.313347 7 11 17
9.297397 -5.208936 -88.829826 7 10 18
8.825310 -4.970130 -84.757401 8 10 20
8.394611 -4.752262 -81.042007 12 14 24
8.000087 -4.552692 -77.638664 15 17 27
-150.497925 -108.410973 -1848.770752 99 92 77
-151.497925 -108.410973 -1848.770752 102 93 79
-152.497925 -108.410973 -1848.770752 102 93 79
-153.497925 -108.410973 -1848.770752 101 92 78
-154.497925 -108.410973 -1848.770752 100 91 77
-155.497925 -108.410973 -1848.770752 103 94 80
-156.497925 -108.410973 -1848.770752 103 94 80
-104.998619 -72.273979 -1232.513794 101 92 78
241.502075 -109.410973 -1848.770752 106 95 97
240.502075 -109.410973 -1848.770752 108 95 96
239.502075 -109.410973 -1848.770752 111 97 98
100.421928 -46.067780 -778.429810 110 95 97
70.370987 -32.418064 -547.783936 114 97 101
54.057617 -25.008223 -422.576172 110 98 101
43.814339 -20.355530 -343.957336 95 93 95
7.386038 -3.838981 -64.869148 55 64 71
7.432446 -3.881542 -65.588318 60 67 74
7.446503 -3.907535 -66.027527 70 72 77
7.410789 -3.907535 -66.027527 78 74 79
7.326016 -3.881542 -65.588318 74 67 69
15.078494 -8.067168 -136.314896 24 18 13
15.004762 -8.067168 -136.314896 19 13 8
15.211424 -8.218664 -138.874802 17 13 8
15.279778 -8.296567 -140.191147 16 12 7
14.132305 -7.711787 -130.309830 13 10 6
13.135939 -7.204015 -121.729759 10 10 7
12.262676 -6.758979 -114.209778 6 9 7
11.491030 -6.365729 -107.564842 6 8 9
10.804237 -6.015724 -101.650627 5 8 13
10.189034 -5.702200 -96.352875 5 9 15
9.634778 -5.419739 -91.579979 7 9 18
9.132841 -5.163939 -87.257614 8 10 20
8.676150 -4.931199 -83.324883 10 12 22
8.258849 -4.718533 -79.731354 14 15 25
7.876055 -4.523451 -76.434967 15 16 26
-150.497925 -109.410973 -1848.770752 98 91 76
-151.497925 -109.410973 -1848.770752 100 91 77
-152.497925 -109.410973 -1848.770752 100 91 77
-153.497925 -109.410973 -1848.770752 100 91 77
-154.497925 -109.410973 -1848.770752 100 91 77
-155.497925 -109.410973 -1848.770752 101 90 76
-156.497925 -109.410973 -1848.770752 102 91 77
-104.998619 -72.940651 -1232.513794 101 90 76
241.502075 -110.410973 -1848.770752 103 95 102
240.502075 -110.410973 -1848.770752 108 97 103
153.281326 -70.663025 -1183.213257 110 96 102
93.073982 -43.087208 -721.471497 110 94 101
66.667252 -30.992554 -518.953186 109 93 100
51.836071 -24.199665 -405.210022 108 95 101
7.184784 -3.750691 -62.803253 48 63 67
7.337763 -3.848748 -64.445168 48 63 69
7.383333 -3.891136 -65.154915 56 66 72
7.364312 -3.899725 -65.298744 73 75 80
7.328991 -3.899725 -65.298744 79 75 77
7.277606 -3.891136 -65.154915 77 70 69
15.078494 -8.140902 -136.314896 18 12 9
15.004762 -8.140902 -136.314896 17 12 9
15.283175 -8.332904 -139.529861 20 16 11
-150.497925 -110.410973 -1848.770752 97 90 75
-151.497925 -110.410973 -1848.770752 98 90 76
-152.497925 -110.410973 -1848.770752 98 89 75
-153.497925 -110.410973 -1848.770752 99 90 76
-154.497925 -110.410973 -1848.770752 99 90 76
-155.497925 -110.410973 -1848.770752 96 87 73
-156.497925 -110.410973 -1848.770752 97 88 74
-104.998619 -73.607315 -1232.513794 100 90 76
241.502075 -111.410973 -1848.770752 92 90 100
240.502075 -111.410973 -1848.770752 102 95 106
136.858322 -63.663414 -1056.440430 106 94 105
86.728027 -40.513081 -672.280273 109 95 106
63.333885 -29.709593 -493.005524 106 93 101
49.789909 -23.454941 -389.214905 104 94 101
40.956882 -19.375822 -321.525360 99 91 99
7.227539 -3.825269 -63.477108 46 62 69
7.350950 -3.909157 -64.869148 53 63 69
7.331941 -3.917748 -65.011719 72 73 78
7.296776 -3.917748 -65.011719 80 75 75
15.009327 -8.176952 -135.689590 14 8 5
15.004762 -8.214634 -136.314896 12 7 4
15.140342 -8.329792 -138.225845 15 10 7
-151.497925 -111.410973 -1848.770752 99 90 76
-152.497925 -111.410973 -1848.770752 98 89 75
-153.497925 -111.410973 -1848.770752 98 89 75
-154.497925 -111.410973 -1848.770752 99 90 76
-155.497925 -111.410973 -1848.770752 97 88 74
-104.331947 -74.273979 -1232.513794 97 88 74
241.502075 -112.410973 -1848.770752 80 82 96
74.824181 -35.266186 -580.006531 94 90 100
58.462048 -27.670393 -455.082031 93 90 99
47.300415 -22.482195 -369.754150 96 93 100
7.283916 -3.927021 -64.585876 70 73 75
14.940791 -8.212674 -135.070007 10 5 4
15.004762 -8.288366 -136.314896 11 6 5
-1.497617 -1.691981 -27.827217 98 89 79
-1.490238 -1.666891 -27.414579 99 90 78
-1.483075 -1.642535 -27.014002 99 90 77
-1.476118 -1.618880 -26.624962 97 88 75
-1.469358 -1.595897 -26.246967 97 88 74
-1.462788 -1.573557 -25.879555 99 90 76
-1.456399 -1.551834 -25.522287 99 91 75
-1.450184 -1.530703 -25.174751 100 92 75
-1.444137 -1.510139 -24.836552 98 90 73
-1.438249 -1.490121 -24.507317 97 89 72
-1.432516 -1.470626 -24.186699 99 90 75
-1.426930 -1.451635 -23.874359 102 93 79
-1.421487 -1.433128 -23.569986 104 95 81
-1.416182 -1.415087 -23.273275 100 91 77
-1.412105 -1.398581 -23.001814 99 91 76
-1.407041 -1.381394 -22.719149 102 95 80
-1.296672 -1.008736 -16.590202 101 92 78
-1.294034 -0.999764 -16.442652 100 91 78
-1.291442 -0.990951 -16.297703 99 91 78
-1.288895 -0.982291 -16.155289 99 91 78
-1.286392 -0.973782 -16.015339 99 91 78
-1.283933 -0.965419 -15.877795 98 91 77
-1.281515 -0.957198 -15.742593 98 91 76
-151.497925 -112.410973 -1848.770752 97 90 75
-101.665283 -74.940651 -1232.513794 97 90 75
14.738889 -8.173764 -133.244736 12 6 7
14.867731 -8.285733 -135.070007 13 7 8
-1.494805 -1.703827 -27.774960 101 92 82
-1.487481 -1.678608 -27.363859 101 93 81
-1.480371 -1.654125 -26.964750 100 92 79
-1.473465 -1.630346 -26.577118 99 90 77
-1.466755 -1.607241 -26.200472 99 90 76
-1.460233 -1.584782 -25.834351 101 92 78
-1.453890 -1.562942 -25.478323 99 90 74
-1.447720 -1.541695 -25.131973 100 92 75
-1.441716 -1.521019 -24.794914 101 93 76
-1.435870 -1.500890 -24.466776 100 92 75
-1.430177 -1.481286 -24.147209 99 90 75
-1.424631 -1.462188 -23.835884 97 88 74
-1.419226 -1.443576 -23.532484 100 91 77
-1.415068 -1.426553 -23.254978 100 91 77
-1.409912 -1.408832 -22.966097 100 93 78
-1.299867 -1.034536 -16.864500 100 91 77
-1.297156 -1.025184 -16.712051 100 91 77
-1.294494 -1.016000 -16.562336 99 90 76
-1.292597 -1.007538 -16.424393 98 90 77
-1.290020 -0.998666 -16.279764 97 89 76
-1.287489 -0.989948 -16.137661 98 90 77
-1.285001 -0.981382 -15.998016 98 90 77
-1.282556 -0.972963 -15.860768 96 89 75
-1.280152 -0.964687 -15.725854 96 89 74
-151.497925 -113.410973 -1848.770752 95 88 73
-152.497925 -113.410973 -1848.770752 95 88 73
-102.331947 -75.607315 -1232.513794 96 88 72
14.542370 -8.135891 -131.468140 12 7 8
14.733182 -8.283148 -133.847656 13 9 9
-5.158173 -7.067859 -114.209778 12 8 3
-4.916243 -6.656639 -107.564842 13 9 4
-4.700917 -6.290637 -101.650627 12 9 4
-4.508035 -5.962787 -96.352875 9 7 3
-4.334262 -5.667417 -91.579979 9 8 6
-4.176893 -5.399928 -87.257614 11 9 8
-4.033709 -5.156551 -83.324883 12 9 10
-1.480899 -1.702861 -27.516588 102 94 81
-1.473847 -1.677888 -27.113045 101 93 80
-1.466998 -1.653636 -26.721167 100 92 79
-1.460344 -1.630076 -26.340456 97 90 75
-1.453878 -1.607178 -25.970440 95 88 73
-1.447590 -1.584914 -25.610678 95 88 73
-1.441475 -1.563258 -25.260744 96 88 74
-1.435524 -1.542187 -24.920246 101 92 78
-1.429731 -1.521675 -24.588804 102 93 79
-1.424091 -1.501703 -24.266064 102 93 79
-1.418597 -1.482247 -23.951685 99 90 77
-1.413243 -1.463290 -23.645350 95 86 73
-1.412484 -1.449387 -23.420691 99 90 77
-1.413957 -1.438001 -23.236710 102 93 80
-1.286570 -1.018684 -16.460953 99 90 77
-1.285459 -1.010809 -16.333700 98 90 77
-1.282959 -1.001957 -16.190659 96 88 75
-1.280503 -0.993259 -16.050098 96 88 75
-1.278089 -0.984710 -15.911959 96 88 75
-1.275716 -0.976307 -15.776177 96 89 74
-1.273383 -0.968046 -15.642693 97 90 75
-152.497925 -114.410973 -1848.770752 96 89 74
-102.331947 -76.273979 -1232.513794 95 88 71
14.601046 -8.280608 -132.647232 14 9 10
-5.522873 -7.726258 -123.767082 19 14 9
-5.239086 -7.241473 -116.001305 15 11 6
-4.988807 -6.813932 -109.152519 13 9 4
-4.766435 -6.434061 -103.067360 10 7 3
-4.567547 -6.094309 -97.624855 11 8 4
-4.388611 -5.788638 -92.728317 13 11 9
-4.226767 -5.512166 -88.299500 12 10 9
-4.079678 -5.260899 -84.274452 11 9 9
-1.475410 -1.711377 -27.414579 102 94 81
-1.468463 -1.686370 -27.014002 102 95 80
-1.461716 -1.662084 -26.624962 101 94 79
-1.455161 -1.638488 -26.246967 100 93 78
-1.448790 -1.615552 -25.879555 99 92 77
-1.442594 -1.593249 -25.522287 99 92 77
-1.436568 -1.571554 -25.174751 100 92 78
-1.430703 -1.550441 -24.836552 101 92 78
-1.424993 -1.529889 -24.507317 96 87 73
-1.419433 -1.509874 -24.186699 97 88 75
-1.414017 -1.490376 -23.874359 100 91 78
-1.408738 -1.471375 -23.569986 100 91 78
-1.277730 -0.999770 -16.015339 96 88 75
-1.275344 -0.991184 -15.877795 96 88 75
-1.273000 -0.982744 -15.742593 98 91 76
-1.270695 -0.974446 -15.609674 101 94 79
-152.497925 -115.410973 -1848.770752 98 91 76
-102.331947 -76.940651 -1232.513794 97 90 73
14.666816 -8.389980 -133.244736 11 6 7
-5.546079 -7.825948 -124.287109 24 16 13
-5.259712 -7.332974 -116.458000 19 14 10
-5.007285 -6.898428 -109.556786 19 15 10
-4.783101 -6.512502 -103.427734 18 15 10
-4.582672 -6.167469 -97.948120 13 10 6
-4.402411 -5.857156 -93.019913 9 7 5
-4.239421 -5.576573 -88.563866 10 8 7
-4.091334 -5.321644 -84.515236 14 10 10
-4.010988 -5.159489 -81.939980 16 11 12
-4.218925 -5.367653 -85.245911 15 10 12
-1.468463 -1.700982 -27.014002 101 94 78
-1.461716 -1.676486 -26.624962 100 93 76
-1.455161 -1.652685 -26.246967 100 93 76
-1.448790 -1.629550 -25.879555 99 92 75
-1.442594 -1.607054 -25.522287 100 93 76
-1.436568 -1.585171 -25.174751 102 93 78
-1.430703 -1.563875 -24.836552 103 94 80
-1.424993 -1.543145 -24.507317 101 92 79
-1.419433 -1.522956 -24.186699 98 89 76
-1.414017 -1.503289 -23.874359 97 87 76
-1.277730 -1.008433 -16.015339 99 91 78
-1.275344 -0.999772 -15.877795 99 91 78
-1.273000 -0.991259 -15.742593 100 93 79
-1.270695 -0.982889 -15.609674 100 93 78
-152.497925 -116.410973 -1848.770752 99 92 77
-102.331947 -77.607315 -1232.513794 96 89 72
14.733182 -8.500342 -133.847656 10 5 6
-5.546079 -7.893175 -124.287109 23 15 12
-5.259712 -7.395967 -116.458000 18 12 9
-5.007285 -6.957687 -109.556786 15 11 7
-4.783101 -6.568446 -103.427734 15 12 7
-4.582672 -6.220449 -97.948120 15 12 8
-4.402411 -5.907470 -93.019913 12 10 8
-4.239421 -5.624478 -88.563866 10 8 7
-4.091334 -5.367359 -84.515236 13 10 10
-4.010988 -5.203810 -81.939980 17 12 13
-4.194747 -5.382738 -84.757401 17 12 14
-4.277361 -5.429409 -85.492287 19 14 15
-1.471150 -1.718733 -27.063433 102 95 78
-1.464352 -1.693936 -26.672977 100 93 76
-1.457748 -1.669845 -26.293629 99 92 75
-1.451329 -1.646429 -25.924919 98 91 74
-1.445088 -1.623661 -25.566406 98 91 74
-1.439017 -1.601514 -25.217674 101 93 78
-1.433109 -1.579963 -24.878328 104 95 81
-1.427358 -1.558984 -24.547993 103 94 81
-1.421758 -1.538555 -24.226316 101 91 80
-1.416303 -1.518654 -23.912960 99 89 80
-1.277366 -1.023747 -16.120071 98 89 77
-1.278422 -1.017647 -16.024015 98 90 77
-1.276715 -1.009444 -15.894858 99 91 78
-1.274356 -1.000839 -15.759367 99 92 77
-1.272037 -0.992380 -15.626166 98 91 76
-152.497925 -117.410973 -1848.770752 98 91 76
-102.331947 -78.273979 -1232.513794 101 93 76
14.733182 -8.572741 -133.847656 10 6 5
-5.546079 -7.960402 -124.287109 18 12 9
-5.259712 -7.458959 -116.458000 16 11 8
-5.007285 -7.016946 -109.556786 13 8 5
-4.783101 -6.624390 -103.427734 11 8 4
-4.582672 -6.273429 -97.948120 12 9 5
-4.402411 -5.957785 -93.019913 13 10 6
-4.239421 -5.672382 -88.563866 12 9 7
-4.091334 -5.413073 -84.515236 13 8 8
-4.010988 -5.248132 -81.939980 14 9 10
-4.147215 -5.367070 -83.796974 15 10 11
-1.472497 -1.734959 -27.088217 99 93 74
-1.465674 -1.709906 -26.697050 99 92 74
-1.459045 -1.685565 -26.317022 99 92 75
-1.452603 -1.661908 -25.947660 98 91 74
-1.446338 -1.638906 -25.588522 97 90 73
-1.440245 -1.616532 -25.239191 99 92 77
-1.434315 -1.594761 -24.899269 102 95 80
-1.428544 -1.573568 -24.568382 102 94 81
-1.422924 -1.552931 -24.246174 101 92 81
-1.417449 -1.532828 -23.932308 99 89 80
-1.417776 -1.519307 -23.721197 99 88 80
-1.276670 -1.031904 -16.111292 101 93 81
-1.278422 -1.026314 -16.024015 100 92 79
-1.277401 -1.018589 -15.903404 100 92 79
-1.275036 -1.009902 -15.767768 100 93 79
-1.272710 -1.001361 -15.634425 99 92 77
-1.270423 -0.992964 -15.503319 99 92 77
-152.497925 -118.410973 -1848.770752 100 93 78
-102.331947 -78.940651 -1232.513794 100 93 78
-5.873724 -8.606196 -133.244736 19 11 7
-5.546079 -8.027628 -124.287109 18 13 11
-5.259712 -7.521951 -116.458000 16 11 10
-5.007285 -7.076206 -109.556786 14 9 7
-4.783101 -6.680334 -103.427734 12 9 5
-4.582672 -6.326409 -97.948120 11 8 4
-4.402411 -6.008099 -93.019913 11 8 4
-4.239421 -5.720286 -88.563866 14 11 7
-4.091334 -5.458787 -84.515236 16 12 10
-4.010988 -5.292453 -81.939980 17 12 12
-4.112266 -5.366785 -83.090820 16 11 12
-1.476554 -1.754431 -27.162840 97 90 73
-1.469653 -1.729028 -26.769531 97 90 73
-1.462950 -1.704349 -26.387451 97 90 73
-1.456435 -1.680365 -26.016123 98 91 74
-1.450101 -1.657047 -25.655102 96 89 72
-1.443941 -1.634367 -25.303963 97 90 74
-1.437947 -1.612300 -24.962305 99 92 77
-1.432112 -1.590821 -24.629751 100 92 79
-1.426431 -1.569906 -24.305943 99 91 80
-1.422051 -1.550792 -24.010010 98 89 79
-1.422338 -1.537068 -23.797531 99 88 79
-1.278760 -1.042322 -16.137661 101 93 80
-1.279808 -1.036104 -16.041395 98 90 77
-1.279465 -1.028851 -15.929096 99 91 78
-1.277078 -1.020062 -15.793023 99 91 77
-1.274731 -1.011422 -15.659255 97 90 75
-1.272424 -1.002927 -15.527734 96 89 74
-152.497925 -119.410973 -1848.770752 99 92 77
-102.331947 -79.607315 -1232.513794 96 89 74
-5.954186 -8.797149 -135.070007 26 16 15
-5.616880 -8.198194 -125.873756 22 16 15
-5.322577 -7.675600 -117.849930 18 13 12
-5.063546 -7.215639 -110.787758 15 10 9
-4.833805 -6.807687 -104.524139 15 11 8
-4.628652 -6.443397 -98.930878 14 11 7
-4.444339 -6.116113 -93.905815 11 8 4
-4.277845 -5.820470 -89.366562 11 8 4
-4.126706 -5.552091 -85.245911 15 12 9
-4.010988 -5.336774 -81.939980 16 12 11
-1.481997 -1.775646 -27.262980 98 91 75
-1.474993 -1.749842 -26.866787 97 90 73
-1.468189 -1.724777 -26.481945 97 90 73
-1.461577 -1.700420 -26.107971 98 91 74
-1.455150 -1.676741 -25.744413 96 89 72
-1.448899 -1.653713 -25.390842 96 89 73
-1.442817 -1.631309 -25.046852 97 90 75
-1.436898 -1.609503 -24.712057 99 92 77
-1.431135 -1.588273 -24.386093 99 91 78
-1.426683 -1.568873 -24.088219 98 90 77
-1.424631 -1.552438 -23.835884 98 89 78
-1.278063 -1.050477 -16.128862 101 93 80
-1.280503 -1.045348 -16.050098 97 89 76
-1.282227 -1.039706 -15.963482 97 89 76
-1.279811 -1.030806 -15.826823 97 89 75
-1.277436 -1.022056 -15.692484 96 89 74
-1.275101 -1.013454 -15.560406 95 88 73
-152.497925 -120.410973 -1848.770752 97 90 75
-102.331947 -80.273979 -1232.513794 97 90 75
-1.484734 -1.793699 -27.313326 98 91 76
-1.477677 -1.767585 -26.915680 97 90 75
-1.470822 -1.742220 -26.529446 98 91 75
-1.464162 -1.717573 -26.154140 98 91 74
-1.457687 -1.693614 -25.789305 98 91 74
-1.451390 -1.670314 -25.434507 97 90 74
-1.445264 -1.647647 -25.089340 97 90 75
-1.439303 -1.625586 -24.753416 98 91 76
-1.433499 -1.604109 -24.426369 99 92 77
-1.429010 -1.584483 -24.127514 99 92 77
-1.422621 -1.549103 -23.588781 98 90 77
-1.278063 -1.059201 -16.128862 100 92 79
-1.281198 -1.054601 -16.058813 97 89 76
-1.283612 -1.049474 -15.980730 97 89 76
-1.281182 -1.040480 -15.843778 97 90 75
-1.278793 -1.031639 -15.709151 96 89 74
-1.276444 -1.022947 -15.576794 97 90 75
-152.497925 -121.410973 -1848.770752 98 91 76
-102.331947 -80.940651 -1232.513794 97 90 75
-1.488858 -1.813496 -27.389196 98 89 75
-1.481722 -1.787022 -26.989353 98 89 75
-1.474790 -1.761309 -26.601019 99 90 76
-1.468056 -1.736326 -26.223698 97 89 75
-1.461509 -1.712042 -25.856934 99 92 77
-1.455144 -1.688427 -25.500286 99 92 76
-1.448951 -1.665455 -25.153343 99 92 75
-1.442925 -1.643100 -24.815714 99 92 75
-1.437059 -1.621337 -24.487030 98 91 74
-1.431345 -1.600143 -24.166939 98 91 74
-1.428083 -1.582048 -23.893644 97 90 75
-1.426033 -1.565608 -23.645350 96 91 76
-1.280157 -1.069675 -16.155289 97 89 75
-1.284685 -1.066182 -16.102522 97 90 75
-1.285696 -1.059835 -16.006674 97 90 75
-1.283244 -1.050738 -15.869277 97 90 75
-1.280833 -1.041795 -15.734220 96 89 74
-1.278463 -1.033004 -15.601441 99 92 77
-152.497925 -122.410973 -1848.770752 99 92 77
-153.497925 -122.410973 -1848.770752 97 90 76
-102.998619 -81.607315 -1232.513794 98 90 77
-1.493005 -1.833403 -27.465488 98 89 75
-1.485788 -1.806565 -27.063433 98 89 75
-1.478780 -1.780501 -26.672977 98 89 75
-1.471970 -1.755178 -26.293629 94 87 72
-1.465352 -1.730566 -25.924919 96 89 74
-1.458917 -1.706634 -25.566406 102 95 80
-1.452657 -1.683355 -25.217674 103 96 79
-1.446566 -1.660703 -24.878328 100 93 77
-1.440636 -1.638652 -24.547993 98 91 75
-1.436038 -1.618505 -24.246174 97 90 73
-1.433874 -1.601440 -23.990538 98 91 74
-1.435211 -1.588556 -23.797531 99 92 75
-1.285069 -1.082552 -16.217287 98 89 75
-1.287489 -1.077237 -16.137661 101 92 79
-1.287787 -1.070231 -16.032700 101 93 79
-1.285313 -1.061029 -15.894858 100 92 79
-1.282881 -1.051985 -15.759367 99 91 77
-1.280490 -1.043093 -15.626166 103 95 82
-152.497925 -123.410973 -1848.770752 102 94 81
-153.497925 -123.410973 -1848.770752 102 94 81
-102.998619 -82.273979 -1232.513794 99 91 78
-4.112105 -2.636282 -39.493099 27 19 15
-4.133467 -2.636282 -39.493099 33 23 17
-4.154829 -2.636282 -39.493099 59 49 41
-4.176191 -2.636282 -39.493099 84 75 66
-4.197553 -2.636282 -39.493099 96 87 77
-5.180825 -2.304055 -34.516140 98 89 76
-5.104200 -2.261828 -33.883541 100 92 79
-5.030334 -2.221120 -33.273716 100 92 79
-4.829024 -2.109589 -31.602919 97 92 77
-4.764671 -2.074134 -31.071777 95 90 75
-4.702445 -2.039851 -30.558195 91 86 69
-2.921162 -1.058754 -15.860768 97 91 72
-2.827112 -1.006923 -15.084311 93 85 68
-2.812325 -0.998774 -14.962232 96 87 73
-2.797776 -0.990755 -14.842113 98 89 75
-2.770735 -0.975581 -14.614789 99 90 77
-1.505587 -1.863835 -27.696939 98 90 73
-1.498124 -1.836324 -27.288130 100 92 75
-1.490879 -1.809614 -26.891211 99 91 74
-1.483841 -1.783670 -26.505674 99 90 75
-1.477003 -1.758459 -26.131035 99 90 76
-1.470354 -1.733951 -25.766840 101 93 79
-1.463889 -1.710117 -25.412657 99 92 77
-1.457599 -1.686928 -25.068077 97 90 76
-1.451477 -1.664361 -24.732719 98 91 77
-1.445517 -1.642389 -24.406214 100 92 76
-1.442061 -1.623634 -24.127514 99 91 74
-1.439844 -1.606598 -23.874359 99 89 72
