ply
format ascii 1.0
element vertex 1129
property float x
property float y
property float z
property uchar red
property uchar green
property uchar blue
end_header
-37.899586 -25.082195 -369.754150 14 9 10
-38.099586 -25.082195 -369.754150 8 5 7
-38.299583 -25.082195 -369.754150 7 4 6
-38.499584 -25.082195 -369.754150 7 4 6
-43.099586 -25.082195 -369.754150 94 89 74
-43.299583 -25.082195 -369.754150 100 93 78
-43.899586 -25.082195 -369.754150 88 78 68
-44.299583 -25.082195 -369.754150 29 16 8
-44.699585 -25.082195 -369.754150 47 32 23
-44.899586 -25.082195 -369.754150 45 30 21
-45.099586 -25.082195 -369.754150 60 43 34
19.258389 -6.697270 -97.948120 88 83 68
19.205408 -6.697270 -97.948120 89 84 69
-27.099585 -25.282194 -369.754150 96 89 72
-36.899586 -25.282194 -369.754150 24 19 16
-37.099586 -25.282194 -369.754150 26 21 20
-37.299583 -25.282194 -369.754150 26 21 20
-37.499584 -25.282194 -369.754150 35 30 29
-37.699585 -25.282194 -369.754150 27 23 22
-37.899586 -25.282194 -369.754150 22 18 17
-38.099586 -25.282194 -369.754150 13 8 9
-38.299583 -25.282194 -369.754150 9 7 7
-38.499584 -25.282194 -369.754150 7 5 5
-26.899586 -25.482195 -369.754150 97 90 73
-27.099585 -25.482195 -369.754150 96 90 71
-36.899586 -25.482195 -369.754150 22 17 14
-37.099586 -25.482195 -369.754150 19 14 11
-37.299583 -25.482195 -369.754150 27 22 19
-37.499584 -25.482195 -369.754150 33 28 25
-38.099586 -25.482195 -369.754150 25 21 20
-38.299583 -25.482195 -369.754150 11 9 8
-4.099584 -25.682196 -369.754150 46 35 31
-4.299584 -25.682196 -369.754150 39 25 19
-26.899586 -25.682196 -369.754150 102 95 78
-27.099585 -25.682196 -369.754150 98 92 73
-27.299585 -25.682196 -369.754150 97 91 72
-36.899586 -25.682196 -369.754150 19 15 10
-37.099586 -25.682196 -369.754150 20 14 9
-37.299583 -25.682196 -369.754150 28 22 17
-37.499584 -25.682196 -369.754150 30 24 19
-4.299584 -25.882196 -369.754150 54 40 34
-4.499584 -25.882196 -369.754150 62 42 37
-26.899586 -25.882196 -369.754150 101 94 79
-27.099585 -25.882196 -369.754150 97 90 73
-27.299585 -25.882196 -369.754150 95 89 70
-37.099586 -25.882196 -369.754150 24 17 14
-37.299583 -25.882196 -369.754150 29 22 19
-37.499584 -25.882196 -369.754150 31 24 21
13.875104 -6.520549 -92.438538 25 16 7
-4.299584 -26.082195 -369.754150 61 45 38
-4.499584 -26.082195 -369.754150 78 59 52
14.125104 -6.570549 -92.438538 52 43 33
14.075104 -6.570549 -92.438538 43 34 24
14.025104 -6.570549 -92.438538 34 23 15
13.975103 -6.570549 -92.438538 24 14 7
13.875104 -6.570549 -92.438538 22 12 5
13.825104 -6.570549 -92.438538 25 16 7
-4.299584 -26.282196 -369.754150 50 37 29
-4.499584 -26.282196 -369.754150 72 53 46
-3.128898 -8.478127 -119.275536 57 42 26
-3.193414 -8.478127 -119.275536 64 48 35
14.075104 -6.620549 -92.438538 36 27 18
14.025104 -6.620549 -92.438538 25 15 8
13.975103 -6.620549 -92.438538 22 12 5
13.925104 -6.620549 -92.438538 23 13 6
13.875104 -6.620549 -92.438538 16 8 1
13.825104 -6.620549 -92.438538 28 19 10
13.775104 -6.620549 -92.438538 41 32 23
-4.299584 -26.482197 -369.754150 39 28 20
-3.128898 -8.542644 -119.275536 55 42 26
-3.193414 -8.542644 -119.275536 55 42 28
-3.257930 -8.542644 -119.275536 59 48 34
14.075104 -6.670549 -92.438538 29 20 11
14.025104 -6.670549 -92.438538 25 14 10
13.975103 -6.670549 -92.438538 22 13 9
13.925104 -6.670549 -92.438538 19 10 6
13.875104 -6.670549 -92.438538 14 6 0
13.825104 -6.670549 -92.438538 27 17 10
13.775104 -6.670549 -92.438538 31 22 13
13.725103 -6.670549 -92.438538 19 10 1
13.675104 -6.670549 -92.438538 16 7 0
13.625104 -6.670549 -92.438538 24 12 6
-4.299584 -26.682196 -369.754150 35 24 16
-3.128898 -8.607160 -119.275536 55 45 28
-3.193414 -8.607160 -119.275536 64 54 37
-3.257930 -8.607160 -119.275536 60 50 33
13.925104 -6.720549 -92.438538 15 9 4
13.875104 -6.720549 -92.438538 13 7 0
13.825104 -6.720549 -92.438538 21 13 6
13.775104 -6.720549 -92.438538 20 12 5
13.875104 -6.770549 -92.438538 14 8 3
13.825104 -6.770549 -92.438538 17 8 4
13.925104 -6.820549 -92.438538 13 6 3
13.875104 -6.820549 -92.438538 15 9 4
13.825104 -6.820549 -92.438538 14 8 3
5.394648 -10.011815 -135.689590 102 86 74
-4.499584 -27.282196 -369.754150 62 43 36
13.875104 -6.870549 -92.438538 17 10 7
13.825104 -6.870549 -92.438538 15 9 4
5.394648 -10.085210 -135.689590 126 108 97
5.321253 -10.085210 -135.689590 125 107 96
-4.299584 -27.482197 -369.754150 54 34 29
-4.499584 -27.482197 -369.754150 65 43 37
-15.299585 -27.482197 -369.754150 20 19 9
-15.499585 -27.482197 -369.754150 17 15 4
-12.282405 -8.173143 -109.964058 63 54 50
-12.341884 -8.173143 -109.964058 88 78 71
-12.401363 -8.173143 -109.964058 93 84 75
13.825104 -6.920549 -92.438538 13 6 3
19.757744 -11.184726 -149.395615 42 33 24
19.676935 -11.184726 -149.395615 41 35 24
5.394648 -10.158604 -135.689590 135 116 103
5.321253 -10.158604 -135.689590 139 120 107
-4.299584 -27.682196 -369.754150 43 23 18
-4.499584 -27.682196 -369.754150 47 25 19
-14.299585 -27.682196 -369.754150 19 10 7
-14.499585 -27.682196 -369.754150 17 10 7
-15.299585 -27.682196 -369.754150 13 13 7
-15.499585 -27.682196 -369.754150 18 15 7
-12.341884 -8.232623 -109.964058 83 71 67
-12.401363 -8.232623 -109.964058 90 78 72
-12.460843 -8.232623 -109.964058 98 85 77
13.825104 -6.970549 -92.438538 16 9 6
19.757744 -11.265533 -149.395615 37 30 21
5.394648 -10.231998 -135.689590 135 118 105
5.321253 -10.231998 -135.689590 139 122 109
-4.299584 -27.882196 -369.754150 36 14 8
-4.499584 -27.882196 -369.754150 44 23 15
-14.299585 -27.882196 -369.754150 19 10 6
-14.499585 -27.882196 -369.754150 14 7 4
-15.099585 -27.882196 -369.754150 8 6 5
-15.299585 -27.882196 -369.754150 9 8 4
-12.401363 -8.292103 -109.964058 93 81 77
-12.460843 -8.292103 -109.964058 103 89 83
13.825104 -7.020549 -92.438538 17 7 7
19.757744 -11.346342 -149.395615 37 30 21
19.676935 -11.346342 -149.395615 34 29 20
19.596127 -11.346342 -149.395615 27 25 15
19.979231 -11.762177 -154.870850 39 30 26
-14.099585 -28.082195 -369.754150 28 18 11
-14.299585 -28.082195 -369.754150 18 10 3
-14.499585 -28.082195 -369.754150 13 7 2
-15.299585 -28.082195 -369.754150 13 12 8
13.825104 -7.070549 -92.438538 15 5 5
19.757744 -11.427150 -149.395615 38 33 24
19.596127 -11.427150 -149.395615 24 23 13
20.146770 -11.845946 -154.870850 44 40 35
19.979231 -11.845946 -154.870850 51 39 37
19.895462 -11.845946 -154.870850 44 32 28
-3.499584 -28.282196 -369.754150 47 26 18
-4.299584 -28.282196 -369.754150 46 24 13
-4.499584 -28.282196 -369.754150 44 22 11
-14.099585 -28.282196 -369.754150 33 24 15
-14.299585 -28.282196 -369.754150 26 16 9
-14.499585 -28.282196 -369.754150 16 10 5
-15.299585 -28.282196 -369.754150 14 11 7
-11.985439 -8.168143 -106.788200 40 25 23
-12.043201 -8.168143 -106.788200 90 75 72
-12.100964 -8.168143 -106.788200 132 116 110
-12.158725 -8.168143 -106.788200 136 121 112
19.757744 -11.507958 -149.395615 39 35 24
19.596127 -11.507958 -149.395615 19 18 8
20.146770 -11.929715 -154.870850 41 36 33
20.063002 -11.929715 -154.870850 45 37 37
19.979231 -11.929715 -154.870850 43 31 31
-2.099584 -28.482197 -369.754150 12 13 11
-2.299584 -28.482197 -369.754150 13 12 8
-2.499584 -28.482197 -369.754150 16 12 7
-2.699584 -28.482197 -369.754150 31 24 15
-2.899584 -28.482197 -369.754150 51 41 31
-3.099584 -28.482197 -369.754150 51 35 23
-3.299584 -28.482197 -369.754150 48 28 17
-3.499584 -28.482197 -369.754150 62 35 25
-3.699584 -28.482197 -369.754150 86 55 46
-3.899584 -28.482197 -369.754150 86 56 45
-4.099584 -28.482197 -369.754150 83 53 42
-4.299584 -28.482197 -369.754150 68 40 29
-4.499584 -28.482197 -369.754150 57 34 19
-13.699585 -28.482197 -369.754150 83 71 59
-13.899585 -28.482197 -369.754150 43 32 24
-14.099585 -28.482197 -369.754150 32 23 14
-14.299585 -28.482197 -369.754150 29 20 11
-14.499585 -28.482197 -369.754150 18 10 3
-11.985439 -8.225905 -106.788200 30 17 15
-12.043201 -8.225905 -106.788200 79 65 59
19.676935 -11.588766 -149.395615 38 37 23
19.596127 -11.588766 -149.395615 19 19 7
1.096616 -11.647593 -150.153976 145 123 111
1.015397 -11.647593 -150.153976 144 125 112
0.934179 -11.647593 -150.153976 145 126 113
0.852961 -11.647593 -150.153976 143 126 113
-1.899584 -28.682196 -369.754150 13 11 11
-2.099584 -28.682196 -369.754150 9 7 6
-2.299584 -28.682196 -369.754150 12 9 5
-2.499584 -28.682196 -369.754150 16 10 3
-2.699584 -28.682196 -369.754150 33 24 15
-2.899584 -28.682196 -369.754150 62 48 36
-3.099584 -28.682196 -369.754150 63 44 31
-3.299584 -28.682196 -369.754150 65 39 25
-3.499584 -28.682196 -369.754150 78 46 33
-3.699584 -28.682196 -369.754150 96 61 48
-3.899584 -28.682196 -369.754150 97 59 47
-4.299584 -28.682196 -369.754150 86 55 40
-4.499584 -28.682196 -369.754150 80 51 36
-13.699585 -28.682196 -369.754150 69 57 45
-13.899585 -28.682196 -369.754150 29 18 10
-14.099585 -28.682196 -369.754150 24 13 5
-14.299585 -28.682196 -369.754150 28 19 10
-11.985439 -8.283667 -106.788200 30 18 14
-12.043201 -8.283667 -106.788200 45 33 27
1.015397 -11.728810 -150.153976 147 128 115
0.934179 -11.728810 -150.153976 147 128 115
0.852961 -11.728810 -150.153976 144 127 114
-1.899584 -28.882196 -369.754150 19 13 14
-2.099584 -28.882196 -369.754150 14 9 8
-2.299584 -28.882196 -369.754150 15 8 5
-2.499584 -28.882196 -369.754150 18 10 3
-2.699584 -28.882196 -369.754150 32 20 10
-2.899584 -28.882196 -369.754150 60 42 31
-3.099584 -28.882196 -369.754150 73 47 33
-3.299584 -28.882196 -369.754150 76 45 30
-3.499584 -28.882196 -369.754150 94 55 41
-3.699584 -28.882196 -369.754150 99 57 44
-3.899584 -28.882196 -369.754150 99 55 42
-4.099584 -28.882196 -369.754150 103 62 47
-4.299584 -28.882196 -369.754150 96 60 44
-4.499584 -28.882196 -369.754150 94 60 44
-13.699585 -28.882196 -369.754150 40 28 16
-13.899585 -28.882196 -369.754150 26 15 7
-14.099585 -28.882196 -369.754150 33 22 14
14.475103 -7.270549 -92.438538 73 59 61
23.052097 -17.233894 -219.113571 32 26 21
22.933578 -17.233894 -219.113571 34 28 23
22.815062 -17.233894 -219.113571 26 22 17
22.696543 -17.233894 -219.113571 28 24 19
-1.899584 -29.082195 -369.754150 18 8 8
-2.099584 -29.082195 -369.754150 29 17 15
-2.299584 -29.082195 -369.754150 33 21 15
-2.499584 -29.082195 -369.754150 38 26 16
-2.699584 -29.082195 -369.754150 48 31 18
-2.899584 -29.082195 -369.754150 75 52 37
-3.099584 -29.082195 -369.754150 88 59 44
-3.299584 -29.082195 -369.754150 81 47 31
-3.499584 -29.082195 -369.754150 99 60 45
-3.699584 -29.082195 -369.754150 105 64 49
-3.899584 -29.082195 -369.754150 108 65 50
-4.099584 -29.082195 -369.754150 106 65 50
-4.299584 -29.082195 -369.754150 90 51 36
-14.099585 -29.082195 -369.754150 86 74 64
14.475103 -7.320549 -92.438538 40 26 27
23.052097 -17.352413 -219.113571 35 29 24
22.933578 -17.352413 -219.113571 33 29 24
22.815062 -17.352413 -219.113571 26 23 19
22.696543 -17.352413 -219.113571 28 25 21
-2.099584 -29.282196 -369.754150 38 22 15
-2.299584 -29.282196 -369.754150 60 42 31
-2.499584 -29.282196 -369.754150 68 47 32
-2.699584 -29.282196 -369.754150 78 52 35
-2.899584 -29.282196 -369.754150 85 58 38
-3.099584 -29.282196 -369.754150 85 53 34
-3.299584 -29.282196 -369.754150 93 60 41
-3.499584 -29.282196 -369.754150 108 74 58
-3.699584 -29.282196 -369.754150 112 77 63
-4.099584 -29.282196 -369.754150 84 51 36
-4.299584 -29.282196 -369.754150 61 28 13
-12.301574 -22.099771 -279.059723 127 111 98
14.475103 -7.370549 -92.438538 28 14 15
-2.499584 -29.482197 -369.754150 77 53 35
-2.699584 -29.482197 -369.754150 87 57 38
-2.899584 -29.482197 -369.754150 94 63 42
-3.099584 -29.482197 -369.754150 96 63 43
-3.299584 -29.482197 -369.754150 99 66 47
-3.499584 -29.482197 -369.754150 113 80 64
-3.699584 -29.482197 -369.754150 114 83 68
-4.099584 -29.482197 -369.754150 77 48 33
-2.781243 -8.453676 -106.022697 70 53 44
-2.838590 -8.453676 -106.022697 89 71 60
-2.895938 -8.453676 -106.022697 99 80 67
-12.113970 -22.462626 -281.717438 133 117 100
-12.150630 -22.250713 -279.059723 128 113 97
-12.301574 -22.250713 -279.059723 127 112 96
14.475103 -7.420549 -92.438538 24 10 12
14.275104 -7.420549 -92.438538 43 25 26
22.388308 -17.720715 -220.748749 23 24 20
22.268904 -17.720715 -220.748749 24 23 19
-2.699584 -29.682196 -369.754150 86 56 39
-2.899584 -29.682196 -369.754150 93 61 42
-3.099584 -29.682196 -369.754150 101 68 48
-3.299584 -29.682196 -369.754150 103 70 51
-3.499584 -29.682196 -369.754150 116 82 66
-3.699584 -29.682196 -369.754150 106 73 57
-2.781243 -8.511024 -106.022697 60 44 31
-2.895938 -8.511024 -106.022697 89 68 53
-12.113970 -22.615007 -281.717438 132 118 99
-12.150630 -22.401657 -279.059723 128 114 96
-12.301574 -22.401657 -279.059723 126 113 97
14.475103 -7.470549 -92.438538 27 13 15
14.425104 -7.470549 -92.438538 31 15 16
14.375104 -7.470549 -92.438538 38 22 23
14.325104 -7.470549 -92.438538 56 38 39
14.275104 -7.470549 -92.438538 70 52 53
22.388308 -17.840117 -220.748749 20 21 17
22.268904 -17.840117 -220.748749 21 19 18
-2.899584 -29.882196 -369.754150 92 59 40
-3.099584 -29.882196 -369.754150 101 65 47
-3.499584 -29.882196 -369.754150 114 78 60
-3.699584 -29.882196 -369.754150 100 66 50
-2.781243 -8.568372 -106.022697 56 40 23
-2.838590 -8.568372 -106.022697 64 46 29
-11.504446 -22.767387 -281.717438 121 110 90
-11.656827 -22.767387 -281.717438 122 111 91
-11.922758 -22.986305 -284.426270 124 113 91
-11.961589 -22.767387 -281.717438 126 115 95
-12.113970 -22.767387 -281.717438 124 113 93
-12.301574 -22.552601 -279.059723 122 112 95
-12.452517 -22.552601 -279.059723 94 85 71
-12.603460 -22.552601 -279.059723 41 32 19
14.475103 -7.520549 -92.438538 27 14 16
22.507711 -17.959520 -220.748749 19 20 18
22.388308 -17.959520 -220.748749 17 18 16
22.268904 -17.959520 -220.748749 19 17 17
-11.352065 -22.919769 -281.717438 124 111 95
-11.504446 -22.919769 -281.717438 125 112 96
-11.656827 -22.919769 -281.717438 124 112 94
-11.922758 -23.140150 -284.426270 126 115 95
-11.961589 -22.919769 -281.717438 127 118 98
-12.113970 -22.919769 -281.717438 125 115 97
-26.099585 -30.082195 -369.754150 128 108 90
-37.910198 -17.959520 -220.748749 145 126 111
-38.029602 -17.959520 -220.748749 144 125 110
-38.149006 -17.959520 -220.748749 147 126 111
14.475103 -7.570549 -92.438538 22 9 11
22.507711 -18.078922 -220.748749 16 17 15
-11.352065 -23.072149 -281.717438 121 106 97
-11.615066 -23.293997 -284.426270 121 107 95
-11.768911 -23.293997 -284.426270 119 108 94
-11.922758 -23.293997 -284.426270 121 111 94
-11.961589 -23.072149 -281.717438 116 108 91
-12.113970 -23.072149 -281.717438 110 101 87
-26.099585 -30.282196 -369.754150 125 107 90
-37.790798 -18.078922 -220.748749 143 127 111
-37.910198 -18.078922 -220.748749 144 125 110
-38.029602 -18.078922 -220.748749 144 125 110
-1.749884 -8.467277 -102.709488 58 36 18
-1.805440 -8.467277 -102.709488 45 29 13
-1.860996 -8.467277 -102.709488 33 21 9
-11.352065 -23.224531 -281.717438 84 67 64
-11.615066 -23.447844 -284.426270 96 83 75
-11.922758 -23.447844 -284.426270 101 92 79
-11.961589 -23.224531 -281.717438 78 70 57
-12.113970 -23.224531 -281.717438 67 58 48
-26.099585 -30.482197 -369.754150 126 110 97
-37.790798 -18.198326 -220.748749 141 125 109
-37.910198 -18.198326 -220.748749 144 128 112
-38.029602 -18.198326 -220.748749 146 130 114
-1.749884 -8.522832 -102.709488 64 42 24
-11.922758 -23.601688 -284.426270 57 46 38
-11.961589 -23.376911 -281.717438 46 37 28
-12.113970 -23.376911 -281.717438 48 41 32
-26.099585 -30.682196 -369.754150 125 111 99
-37.910198 -18.317728 -220.748749 145 129 113
-38.029602 -18.317728 -220.748749 145 129 113
6.325104 -7.720549 -92.438538 129 115 103
6.275104 -7.720549 -92.438538 131 115 103
-1.446985 -8.431999 -100.956764 88 59 44
-1.501593 -8.431999 -100.956764 81 51 32
-1.749884 -8.578388 -102.709488 71 47 29
-1.860996 -8.578388 -102.709488 53 39 27
-11.961589 -23.529293 -281.717438 40 30 23
-12.113970 -23.529293 -281.717438 40 32 25
-25.899586 -30.882196 -369.754150 95 84 76
-26.099585 -30.882196 -369.754150 92 81 73
-26.299585 -30.882196 -369.754150 81 70 66
-26.499584 -30.882196 -369.754150 66 55 51
6.325104 -7.770549 -92.438538 106 94 82
6.275104 -7.770549 -92.438538 130 116 104
-1.446985 -8.486607 -100.956764 72 45 31
-1.501593 -8.486607 -100.956764 83 55 38
-1.749884 -8.633944 -102.709488 80 57 41
-1.860996 -8.633944 -102.709488 44 28 16
-8.899584 -31.082195 -369.754150 140 127 111
-9.099585 -31.082195 -369.754150 142 130 118
-9.299584 -31.082195 -369.754150 90 78 68
-11.961589 -23.681673 -281.717438 35 25 18
-26.099585 -31.082195 -369.754150 49 40 36
-26.299585 -31.082195 -369.754150 41 32 29
-26.499584 -31.082195 -369.754150 32 24 24
6.375104 -7.820549 -92.438538 37 28 18
6.325104 -7.820549 -92.438538 81 69 57
6.275104 -7.820549 -92.438538 129 115 103
-1.446985 -8.541214 -100.956764 61 35 21
-1.501593 -8.541214 -100.956764 80 54 40
-1.749884 -8.689499 -102.709488 76 55 40
-1.860996 -8.689499 -102.709488 50 33 24
-8.899584 -31.282196 -369.754150 138 125 109
-9.099585 -31.282196 -369.754150 142 130 118
-9.299584 -31.282196 -369.754150 112 100 90
-9.499584 -31.282196 -369.754150 59 47 41
-26.099585 -31.282196 -369.754150 37 32 31
-26.299585 -31.282196 -369.754150 29 23 24
-26.499584 -31.282196 -369.754150 22 17 19
-26.699585 -31.282196 -369.754150 24 19 21
-26.899586 -31.282196 -369.754150 26 20 25
-23.532251 -16.250492 -192.080078 82 67 64
6.375104 -7.870549 -92.438538 43 34 24
6.325104 -7.870549 -92.438538 66 54 42
6.275104 -7.870549 -92.438538 119 105 93
-1.446985 -8.595821 -100.956764 57 33 21
-1.501593 -8.595821 -100.956764 62 38 26
-1.749884 -8.745054 -102.709488 58 38 27
-1.805440 -8.745054 -102.709488 51 33 22
-1.860996 -8.745054 -102.709488 56 39 30
-8.699584 -31.482197 -369.754150 145 129 113
-8.899584 -31.482197 -369.754150 144 128 115
-9.099585 -31.482197 -369.754150 139 125 113
-9.299584 -31.482197 -369.754150 134 121 113
-9.499584 -31.482197 -369.754150 82 68 62
-9.699584 -31.482197 -369.754150 44 32 28
-26.299585 -31.482197 -369.754150 25 20 21
-26.499584 -31.482197 -369.754150 19 16 18
-23.428356 -16.354387 -192.080078 67 55 55
-23.532251 -16.354387 -192.080078 66 54 54
6.375104 -7.920549 -92.438538 37 31 20
6.325104 -7.920549 -92.438538 58 48 38
-1.392378 -8.650429 -100.956764 70 46 34
-1.446985 -8.650429 -100.956764 70 48 37
-8.699584 -31.682196 -369.754150 146 129 116
-8.899584 -31.682196 -369.754150 147 131 119
-9.099585 -31.682196 -369.754150 141 126 117
-9.299584 -31.682196 -369.754150 143 131 121
-9.499584 -31.682196 -369.754150 114 101 93
-9.699584 -31.682196 -369.754150 60 48 42
-9.899584 -31.682196 -369.754150 41 29 23
-23.532251 -16.458284 -192.080078 63 52 54
-8.699584 -31.882196 -369.754150 140 122 111
-8.899584 -31.882196 -369.754150 141 123 112
-9.099585 -31.882196 -369.754150 145 128 119
-9.299584 -31.882196 -369.754150 136 121 112
-9.499584 -31.882196 -369.754150 138 123 114
-9.699584 -31.882196 -369.754150 75 63 53
-9.899584 -31.882196 -369.754150 42 29 21
-16.299585 -31.882196 -369.754150 29 13 14
-16.499584 -31.882196 -369.754150 27 14 12
-23.532251 -16.562180 -192.080078 38 33 32
-8.699584 -32.082195 -369.754150 141 122 114
-8.899584 -32.082195 -369.754150 140 121 113
-9.099585 -32.082195 -369.754150 145 127 116
-9.299584 -32.082195 -369.754150 132 116 104
-9.499584 -32.082195 -369.754150 145 129 117
-9.699584 -32.082195 -369.754150 95 81 69
-15.899585 -32.082195 -369.754150 29 10 13
-16.099585 -32.082195 -369.754150 29 12 15
-16.299585 -32.082195 -369.754150 28 11 14
-16.499584 -32.082195 -369.754150 38 22 23
-16.699585 -32.082195 -369.754150 42 26 27
-23.999729 -20.866468 -240.490509 17 12 9
-24.129812 -20.866468 -240.490509 15 10 7
-24.259893 -20.866468 -240.490509 21 13 13
-24.389975 -20.866468 -240.490509 24 12 12
-23.532251 -16.666077 -192.080078 33 30 26
-8.699584 -32.282196 -369.754150 140 121 113
-8.899584 -32.282196 -369.754150 143 125 114
-9.099585 -32.282196 -369.754150 145 127 116
-9.299584 -32.282196 -369.754150 140 122 111
-9.499584 -32.282196 -369.754150 148 131 118
-9.699584 -32.282196 -369.754150 121 105 92
-15.899585 -32.282196 -369.754150 50 31 34
-16.099585 -32.282196 -369.754150 49 30 33
-16.299585 -32.282196 -369.754150 41 22 25
-16.499584 -32.282196 -369.754150 41 25 26
-16.699585 -32.282196 -369.754150 37 21 22
-16.899586 -32.282196 -369.754150 34 18 19
-5.774896 -8.070549 -92.438538 37 32 23
-23.999729 -20.996550 -240.490509 17 13 12
-24.129812 -20.996550 -240.490509 19 14 13
-24.389975 -20.996550 -240.490509 21 9 9
-24.650137 -20.996550 -240.490509 26 12 14
-23.532251 -16.769972 -192.080078 38 35 31
-8.899584 -32.482197 -369.754150 143 125 114
-9.099585 -32.482197 -369.754150 146 128 117
-9.299584 -32.482197 -369.754150 143 126 113
-15.899585 -32.482197 -369.754150 53 32 34
-16.099585 -32.482197 -369.754150 51 33 34
-16.299585 -32.482197 -369.754150 45 27 28
-16.499584 -32.482197 -369.754150 41 23 22
-16.699585 -32.482197 -369.754150 38 23 21
-16.899586 -32.482197 -369.754150 43 28 26
-17.099585 -32.482197 -369.754150 44 31 29
-17.299585 -32.482197 -369.754150 39 26 24
-17.499584 -32.482197 -369.754150 30 17 15
-5.774896 -8.120549 -92.438538 33 28 19
-5.824896 -8.120549 -92.438538 30 24 17
-12.082303 -13.394720 -152.475937 21 19 18
-12.164778 -13.394720 -152.475937 34 32 31
-23.999729 -21.126631 -240.490509 19 14 13
-24.389975 -21.126631 -240.490509 28 17 19
-24.520056 -21.126631 -240.490509 24 13 16
-24.650137 -21.126631 -240.490509 29 20 23
15.775104 -8.170549 -92.438538 117 101 89
-15.899585 -32.682198 -369.754150 39 21 20
-16.099585 -32.682198 -369.754150 42 24 23
-16.299585 -32.682198 -369.754150 40 25 23
-16.499584 -32.682198 -369.754150 38 23 21
-16.699585 -32.682198 -369.754150 37 22 20
-16.899586 -32.682198 -369.754150 35 22 20
-17.099585 -32.682198 -369.754150 32 19 17
-17.299585 -32.682198 -369.754150 25 13 11
-17.499584 -32.682198 -369.754150 19 7 5
-5.774896 -8.170549 -92.438538 37 31 24
-5.824896 -8.170549 -92.438538 33 27 22
-6.724896 -8.170549 -92.438538 12 8 13
-12.082303 -13.477194 -152.475937 37 35 34
-12.164778 -13.477194 -152.475937 38 36 36
-23.999729 -21.256712 -240.490509 33 28 27
-24.389975 -21.256712 -240.490509 50 41 44
15.775104 -8.220549 -92.438538 118 101 92
5.700416 -32.882195 -369.754150 141 122 107
-15.899585 -32.882195 -369.754150 34 20 21
-16.099585 -32.882195 -369.754150 33 19 20
-16.299585 -32.882195 -369.754150 25 11 12
-16.499584 -32.882195 -369.754150 23 11 11
-16.699585 -32.882195 -369.754150 24 12 12
-16.899586 -32.882195 -369.754150 21 11 11
-17.099585 -32.882195 -369.754150 19 9 9
-17.299585 -32.882195 -369.754150 14 6 6
-17.499584 -32.882195 -369.754150 13 5 5
-17.699585 -32.882195 -369.754150 15 7 7
-17.899586 -32.882195 -369.754150 16 8 8
-18.099585 -32.882195 -369.754150 14 6 6
-5.774896 -8.220549 -92.438538 38 34 29
-5.824896 -8.220549 -92.438538 36 32 27
-6.724896 -8.220549 -92.438538 19 16 18
-6.774896 -8.220549 -92.438538 15 14 16
-12.082303 -13.559669 -152.475937 40 36 35
-12.164778 -13.559669 -152.475937 38 33 34
-12.247252 -13.559669 -152.475937 41 36 37
-23.999729 -21.386795 -240.490509 50 45 44
-24.129812 -21.386795 -240.490509 55 46 49
-24.259893 -21.386795 -240.490509 60 50 56
-24.389975 -21.386795 -240.490509 72 62 68
15.975103 -8.270549 -92.438538 119 100 92
15.925104 -8.270549 -92.438538 120 103 94
15.875104 -8.270549 -92.438538 115 98 89
15.825104 -8.270549 -92.438538 114 97 88
15.775104 -8.270549 -92.438538 120 103 94
12.180576 -9.949533 -111.204254 90 57 48
5.900416 -33.082195 -369.754150 137 120 107
5.700416 -33.082195 -369.754150 139 120 107
-15.899585 -33.082195 -369.754150 19 9 9
-16.099585 -33.082195 -369.754150 16 6 6
-16.299585 -33.082195 -369.754150 18 8 8
-16.499584 -33.082195 -369.754150 16 6 6
-16.699585 -33.082195 -369.754150 12 4 4
-16.899586 -33.082195 -369.754150 13 5 5
-17.099585 -33.082195 -369.754150 13 5 5
-17.299585 -33.082195 -369.754150 11 6 5
-17.499584 -33.082195 -369.754150 11 6 5
-17.699585 -33.082195 -369.754150 12 7 6
-17.899586 -33.082195 -369.754150 11 6 5
-18.099585 -33.082195 -369.754150 9 4 3
-18.299585 -33.082195 -369.754150 12 7 6
-5.774896 -8.270549 -92.438538 41 36 33
-5.824896 -8.270549 -92.438538 41 36 33
-5.874896 -8.270549 -92.438538 34 29 26
-6.724896 -8.270549 -92.438538 29 27 26
-6.774896 -8.270549 -92.438538 29 30 28
-23.999729 -21.516876 -240.490509 58 52 53
-24.129812 -21.516876 -240.490509 56 46 52
-24.259893 -21.516876 -240.490509 59 48 56
15.975103 -8.320549 -92.438538 120 101 93
15.925104 -8.320549 -92.438538 121 104 95
15.875104 -8.320549 -92.438538 114 97 88
15.825104 -8.320549 -92.438538 113 96 87
15.775104 -8.320549 -92.438538 119 102 93
15.725103 -8.320549 -92.438538 117 100 91
12.180576 -10.009683 -111.204254 104 67 59
12.120425 -10.009683 -111.204254 96 60 50
11.848611 -10.085514 -112.046715 75 43 32
5.900416 -33.282196 -369.754150 139 119 108
5.700416 -33.282196 -369.754150 137 117 106
5.500416 -33.282196 -369.754150 137 117 106
-3.424896 -8.320549 -92.438538 52 41 37
-15.899585 -33.282196 -369.754150 13 7 8
-16.099585 -33.282196 -369.754150 15 9 10
-16.299585 -33.282196 -369.754150 13 7 8
-16.499584 -33.282196 -369.754150 11 5 6
-16.699585 -33.282196 -369.754150 9 3 4
-16.899586 -33.282196 -369.754150 8 3 4
-17.099585 -33.282196 -369.754150 8 3 4
-17.299585 -33.282196 -369.754150 9 4 5
-17.499584 -33.282196 -369.754150 9 4 5
-17.699585 -33.282196 -369.754150 8 3 4
-17.899586 -33.282196 -369.754150 12 7 8
-18.099585 -33.282196 -369.754150 9 4 5
-18.299585 -33.282196 -369.754150 10 5 6
-5.774896 -8.320549 -92.438538 43 39 38
-5.824896 -8.320549 -92.438538 44 40 39
-5.874896 -8.320549 -92.438538 41 37 36
-6.724896 -8.320549 -92.438538 32 31 27
-6.774896 -8.320549 -92.438538 36 35 31
-23.999729 -21.646957 -240.490509 52 45 48
-24.129812 -21.646957 -240.490509 52 41 49
-24.259893 -21.646957 -240.490509 53 42 52
15.975103 -8.370549 -92.438538 121 102 94
15.925104 -8.370549 -92.438538 118 101 92
15.875104 -8.370549 -92.438538 115 98 89
15.825104 -8.370549 -92.438538 116 99 90
15.775104 -8.370549 -92.438538 117 100 91
12.120425 -10.069834 -111.204254 101 62 53
12.091035 -10.146120 -112.046715 98 59 50
11.848611 -10.146120 -112.046715 73 43 32
5.700416 -33.482197 -369.754150 137 117 106
5.500416 -33.482197 -369.754150 136 116 105
-3.374896 -8.370549 -92.438538 48 40 40
-3.424896 -8.370549 -92.438538 37 29 29
-15.899585 -33.482197 -369.754150 10 5 6
-16.099585 -33.482197 -369.754150 11 6 7
-16.299585 -33.482197 -369.754150 9 4 5
-16.499584 -33.482197 -369.754150 9 4 5
-16.699585 -33.482197 -369.754150 8 3 4
-16.899586 -33.482197 -369.754150 7 2 3
-17.099585 -33.482197 -369.754150 5 3 3
-17.299585 -33.482197 -369.754150 6 4 4
-17.499584 -33.482197 -369.754150 7 5 5
-17.699585 -33.482197 -369.754150 8 6 6
-17.899586 -33.482197 -369.754150 13 8 9
-18.099585 -33.482197 -369.754150 10 5 6
-18.299585 -33.482197 -369.754150 10 8 8
-5.774896 -8.370549 -92.438538 44 39 40
-5.824896 -8.370549 -92.438538 48 44 43
-5.874896 -8.370549 -92.438538 51 47 46
-6.724896 -8.370549 -92.438538 31 31 25
-23.999729 -21.777039 -240.490509 45 39 44
15.975103 -8.420549 -92.438538 120 104 92
15.925104 -8.420549 -92.438538 117 100 91
15.875104 -8.420549 -92.438538 116 99 90
15.825104 -8.420549 -92.438538 119 102 93
15.775104 -8.420549 -92.438538 117 100 91
12.120425 -10.129984 -111.204254 94 56 44
12.091035 -10.206726 -112.046715 104 68 58
11.848611 -10.206726 -112.046715 72 46 32
5.700416 -33.682198 -369.754150 138 118 107
-3.374896 -8.420549 -92.438538 36 30 31
-3.424896 -8.420549 -92.438538 43 37 38
-15.899585 -33.682198 -369.754150 10 7 9
-16.099585 -33.682198 -369.754150 8 5 7
-16.299585 -33.682198 -369.754150 10 7 9
-16.499584 -33.682198 -369.754150 9 6 8
-16.699585 -33.682198 -369.754150 8 5 7
-16.899586 -33.682198 -369.754150 7 4 6
-17.099585 -33.682198 -369.754150 7 4 6
-17.299585 -33.682198 -369.754150 9 6 8
-17.499584 -33.682198 -369.754150 8 7 9
-17.699585 -33.682198 -369.754150 9 8 10
-17.899586 -33.682198 -369.754150 12 10 10
-18.099585 -33.682198 -369.754150 12 10 10
-18.299585 -33.682198 -369.754150 15 13 13
-5.774896 -8.420549 -92.438538 43 38 40
-5.824896 -8.420549 -92.438538 51 46 47
-5.874896 -8.420549 -92.438538 53 48 49
15.975103 -8.470549 -92.438538 120 104 92
15.925104 -8.470549 -92.438538 119 102 93
12.120425 -10.190134 -111.204254 93 55 43
12.151641 -10.267332 -112.046715 96 57 48
12.091035 -10.267332 -112.046715 112 76 66
11.909217 -10.267332 -112.046715 97 71 57
11.848611 -10.267332 -112.046715 65 44 29
-3.374896 -8.470549 -92.438538 33 26 29
-3.424896 -8.470549 -92.438538 36 31 33
-15.899585 -33.882195 -369.754150 10 7 9
-16.099585 -33.882195 -369.754150 12 9 11
-16.299585 -33.882195 -369.754150 12 9 11
-16.499584 -33.882195 -369.754150 9 6 8
-16.699585 -33.882195 -369.754150 7 4 6
-16.899586 -33.882195 -369.754150 8 5 7
-17.499584 -33.882195 -369.754150 20 17 19
-17.699585 -33.882195 -369.754150 19 16 18
-17.899586 -33.882195 -369.754150 18 16 16
-18.099585 -33.882195 -369.754150 17 15 15
-5.824896 -8.470549 -92.438538 52 47 49
12.120425 -10.250284 -111.204254 88 50 38
12.091035 -10.327938 -112.046715 109 73 63
12.030429 -10.327938 -112.046715 129 94 84
11.909217 -10.327938 -112.046715 101 75 61
-3.374896 -8.520549 -92.438538 28 23 25
-3.424896 -8.520549 -92.438538 33 27 32
-16.099585 -34.082195 -369.754150 7 3 8
-16.299585 -34.082195 -369.754150 10 4 9
-16.699585 -34.082195 -369.754150 12 6 11
-17.499584 -34.082195 -369.754150 33 28 30
-17.699585 -34.082195 -369.754150 37 32 34
-17.899586 -34.082195 -369.754150 28 23 24
-18.099585 -34.082195 -369.754150 32 27 28
12.030429 -10.388544 -112.046715 115 81 68
11.909217 -10.388544 -112.046715 94 68 54
11.848611 -10.388544 -112.046715 66 47 34
11.788005 -10.388544 -112.046715 49 35 23
4.139728 -15.945208 -171.978668 134 117 104
-2.699584 -34.282196 -369.754150 28 12 6
-2.899584 -34.282196 -369.754150 45 26 21
-3.099584 -34.282196 -369.754150 61 39 33
-3.299584 -34.282196 -369.754150 68 42 35
-3.499584 -34.282196 -369.754150 89 61 54
-3.374896 -8.570549 -92.438538 28 22 27
-3.424896 -8.570549 -92.438538 34 28 33
-17.699585 -34.282196 -369.754150 45 40 42
-17.899586 -34.282196 -369.754150 46 41 42
-18.099585 -34.282196 -369.754150 47 42 43
-12.719890 -9.141919 -98.601105 147 128 113
-12.773223 -9.141919 -98.601105 143 126 113
4.232751 -16.038231 -171.978668 134 117 104
4.139728 -16.038231 -171.978668 137 118 105
4.046705 -16.038231 -171.978668 138 119 106
3.953682 -16.038231 -171.978668 138 118 107
-2.899584 -34.482197 -369.754150 47 31 25
-3.099584 -34.482197 -369.754150 50 30 25
-3.299584 -34.482197 -369.754150 51 29 23
-3.374896 -8.620549 -92.438538 30 23 28
-3.424896 -8.620549 -92.438538 34 28 33
-12.719890 -9.195252 -98.601105 148 129 114
-12.773223 -9.195252 -98.601105 145 129 113
4.208285 -16.038010 -170.984573 135 118 105
4.023314 -16.038010 -170.984573 135 116 103
3.953682 -16.131254 -171.978668 136 116 105
3.860658 -16.131254 -171.978668 137 117 106
-3.099584 -34.682198 -369.754150 40 21 16
-3.299584 -34.682198 -369.754150 39 19 14
-3.374896 -8.670549 -92.438538 30 23 28
-3.424896 -8.670549 -92.438538 33 26 31
-12.719890 -9.248586 -98.601105 147 128 113
-12.773223 -9.248586 -98.601105 146 130 114
6.425104 -8.720549 -92.438538 137 117 106
4.300770 -16.130495 -170.984573 134 117 104
4.208285 -16.130495 -170.984573 135 118 105
4.115799 -16.130495 -170.984573 136 117 104
4.023314 -16.130495 -170.984573 134 115 102
-3.099584 -34.882195 -369.754150 56 41 38
-3.299584 -34.882195 -369.754150 55 39 33
-3.374896 -8.720549 -92.438538 27 19 26
-3.424896 -8.720549 -92.438538 29 21 28
-12.719890 -9.301919 -98.601105 144 125 110
-12.773223 -9.301919 -98.601105 145 126 111
6.475104 -8.770549 -92.438538 133 115 104
6.425104 -8.770549 -92.438538 132 114 103
4.300770 -16.222980 -170.984573 135 118 105
4.208285 -16.222980 -170.984573 134 117 104
4.115799 -16.222980 -170.984573 136 117 104
-3.374896 -8.770549 -92.438538 19 11 18
6.475104 -8.820549 -92.438538 132 116 104
6.425104 -8.820549 -92.438538 129 112 103
-3.374896 -8.820549 -92.438538 15 7 17
-42.734760 -24.124578 -252.823349 152 133 120
-42.871510 -24.124578 -252.823349 154 135 122
6.475104 -8.870549 -92.438538 134 118 106
-52.499584 -35.482197 -369.754150 150 128 117
-42.734760 -24.261332 -252.823349 153 134 121
-42.871510 -24.261332 -252.823349 152 133 120
-43.008263 -24.261332 -252.823349 148 129 114
6.475104 -8.920549 -92.438538 135 118 105
-3.099584 -35.682198 -369.754150 63 48 45
-3.299584 -35.682198 -369.754150 53 37 31
-4.299584 -35.682198 -369.754150 42 26 20
-52.499584 -35.682198 -369.754150 150 127 119
-52.699585 -35.682198 -369.754150 150 127 119
-52.899586 -35.682198 -369.754150 151 129 118
-53.099586 -35.682198 -369.754150 147 128 115
-42.871510 -24.398083 -252.823349 151 130 115
-43.008263 -24.398083 -252.823349 153 133 116
39.100414 -35.882195 -369.754150 57 36 34
6.475104 -8.970549 -92.438538 135 118 105
-2.899584 -35.882195 -369.754150 52 40 34
-3.099584 -35.882195 -369.754150 55 41 35
-3.299584 -35.882195 -369.754150 43 27 21
-3.499584 -35.882195 -369.754150 34 15 10
-3.699584 -35.882195 -369.754150 39 19 14
-3.899584 -35.882195 -369.754150 54 34 29
-4.099584 -35.882195 -369.754150 52 33 28
-4.299584 -35.882195 -369.754150 41 25 19
-4.499584 -35.882195 -369.754150 35 21 15
-4.699584 -35.882195 -369.754150 33 23 16
-4.899584 -35.882195 -369.754150 44 34 27
-52.299583 -35.882195 -369.754150 152 129 121
-52.499584 -35.882195 -369.754150 152 129 121
-52.699585 -35.882195 -369.754150 151 128 120
-52.899586 -35.882195 -369.754150 151 129 118
-53.099586 -35.882195 -369.754150 148 128 117
-53.299583 -35.882195 -369.754150 148 131 118
-53.499584 -35.882195 -369.754150 146 129 116
-53.699585 -35.882195 -369.754150 144 127 114
40.300415 -36.082195 -369.754150 60 34 22
40.100414 -36.082195 -369.754150 69 41 30
39.300415 -36.082195 -369.754150 63 41 36
39.100414 -36.082195 -369.754150 52 33 30
38.900414 -36.082195 -369.754150 56 38 39
6.475104 -9.020549 -92.438538 136 119 106
6.425104 -9.020549 -92.438538 137 119 108
-2.899584 -36.082195 -369.754150 51 40 32
-3.299584 -36.082195 -369.754150 42 26 20
-3.499584 -36.082195 -369.754150 40 21 18
-3.699584 -36.082195 -369.754150 42 23 20
-3.899584 -36.082195 -369.754150 54 35 32
-4.099584 -36.082195 -369.754150 58 39 36
-4.299584 -36.082195 -369.754150 49 32 29
-4.499584 -36.082195 -369.754150 38 23 20
-4.699584 -36.082195 -369.754150 39 27 23
-4.899584 -36.082195 -369.754150 58 46 42
-37.099586 -36.082195 -369.754150 34 27 30
-52.299583 -36.082195 -369.754150 149 129 118
-52.499584 -36.082195 -369.754150 150 130 119
-52.699585 -36.082195 -369.754150 152 130 119
-52.899586 -36.082195 -369.754150 151 129 118
-53.099586 -36.082195 -369.754150 150 130 119
-53.299583 -36.082195 -369.754150 152 132 121
-53.499584 -36.082195 -369.754150 150 130 119
-53.699585 -36.082195 -369.754150 148 128 117
40.500416 -36.282196 -369.754150 74 49 39
40.300415 -36.282196 -369.754150 58 34 22
40.100414 -36.282196 -369.754150 69 42 32
39.900414 -36.282196 -369.754150 70 44 32
39.500416 -36.282196 -369.754150 74 52 41
39.300415 -36.282196 -369.754150 66 44 39
39.100414 -36.282196 -369.754150 55 35 34
38.900414 -36.282196 -369.754150 54 36 37
6.475104 -9.070549 -92.438538 137 120 107
6.425104 -9.070549 -92.438538 139 121 110
-3.299584 -36.282196 -369.754150 38 24 18
-3.899584 -36.282196 -369.754150 47 28 25
-4.099584 -36.282196 -369.754150 58 39 36
-4.299584 -36.282196 -369.754150 58 41 38
-4.699584 -36.282196 -369.754150 48 33 30
-4.899584 -36.282196 -369.754150 69 57 53
-37.099586 -36.282196 -369.754150 44 37 40
-37.499584 -36.282196 -369.754150 43 38 40
-52.299583 -36.282196 -369.754150 149 129 118
-52.499584 -36.282196 -369.754150 151 132 119
-52.699585 -36.282196 -369.754150 153 131 120
-52.899586 -36.282196 -369.754150 152 130 119
-53.099586 -36.282196 -369.754150 148 128 117
-53.299583 -36.282196 -369.754150 150 130 119
-53.499584 -36.282196 -369.754150 150 130 119
40.500416 -36.482197 -369.754150 70 42 35
40.300415 -36.482197 -369.754150 67 40 30
40.100414 -36.482197 -369.754150 69 41 34
39.900414 -36.482197 -369.754150 71 44 34
39.300415 -36.482197 -369.754150 67 47 42
39.100414 -36.482197 -369.754150 58 40 39
38.900414 -36.482197 -369.754150 55 39 40
38.700417 -36.482197 -369.754150 57 43 44
6.475104 -9.120549 -92.438538 139 119 108
-37.099586 -36.482197 -369.754150 30 25 26
-37.499584 -36.482197 -369.754150 27 25 25
-38.699585 -36.482197 -369.754150 14 11 13
-52.499584 -36.482197 -369.754150 148 129 114
-52.699585 -36.482197 -369.754150 148 129 116
-52.899586 -36.482197 -369.754150 146 127 114
-53.099586 -36.482197 -369.754150 148 128 117
40.300415 -36.682198 -369.754150 74 48 41
40.100414 -36.682198 -369.754150 74 46 39
39.100414 -36.682198 -369.754150 61 43 42
38.900414 -36.682198 -369.754150 59 43 44
38.700417 -36.682198 -369.754150 55 41 42
-36.299583 -36.682198 -369.754150 10 7 9
-36.499584 -36.682198 -369.754150 9 6 8
-36.699585 -36.682198 -369.754150 11 6 8
-36.899586 -36.682198 -369.754150 6 3 5
-37.099586 -36.682198 -369.754150 7 5 5
-37.299583 -36.682198 -369.754150 8 6 6
-37.499584 -36.682198 -369.754150 8 6 6
-37.699585 -36.682198 -369.754150 8 6 6
-38.099586 -36.682198 -369.754150 8 6 6
-38.299583 -36.682198 -369.754150 8 6 6
-38.499584 -36.682198 -369.754150 8 6 6
-38.699585 -36.682198 -369.754150 8 6 6
-52.699585 -36.682198 -369.754150 146 127 112
39.100414 -36.882195 -369.754150 65 47 46
38.900414 -36.882195 -369.754150 62 46 47
-36.299583 -36.882195 -369.754150 6 4 4
-36.499584 -36.882195 -369.754150 4 2 2
-36.699585 -36.882195 -369.754150 8 6 6
-36.899586 -36.882195 -369.754150 9 7 7
-37.099586 -36.882195 -369.754150 8 6 6
-37.299583 -36.882195 -369.754150 6 6 6
-37.499584 -36.882195 -369.754150 7 5 5
-38.299583 -36.882195 -369.754150 10 6 5
-38.499584 -36.882195 -369.754150 9 5 4
39.100414 -37.082195 -369.754150 79 60 57
38.900414 -37.082195 -369.754150 68 50 49
-36.299583 -37.082195 -369.754150 9 7 7
-36.499584 -37.082195 -369.754150 9 7 6
39.100414 -37.282196 -369.754150 109 90 87
38.900414 -37.282196 -369.754150 89 71 70
9.275104 -9.420549 -92.438538 128 102 95
9.225103 -9.420549 -92.438538 139 114 104
19.700415 -37.682198 -369.754150 143 124 111
19.500416 -37.682198 -369.754150 141 122 109
9.275104 -9.470549 -92.438538 101 73 66
9.225103 -9.470549 -92.438538 128 103 93
9.175104 -9.470549 -92.438538 139 117 106
19.700415 -37.882195 -369.754150 145 126 113
19.500416 -37.882195 -369.754150 141 122 109
-10.299584 -37.882195 -369.754150 94 70 58
-10.499584 -37.882195 -369.754150 112 90 79
-10.699584 -37.882195 -369.754150 112 93 85
-11.899584 -37.882195 -369.754150 69 57 53
-12.099585 -37.882195 -369.754150 55 44 40
9.325104 -9.520549 -92.438538 75 46 42
9.275104 -9.520549 -92.438538 82 53 48
9.225103 -9.520549 -92.438538 105 79 72
9.175104 -9.520549 -92.438538 138 116 105
9.125104 -9.520549 -92.438538 135 114 106
19.700415 -38.082195 -369.754150 142 123 108
19.500416 -38.082195 -369.754150 144 125 110
-10.299584 -38.082195 -369.754150 77 51 39
-10.499584 -38.082195 -369.754150 98 74 62
-10.699584 -38.082195 -369.754150 113 91 80
-11.699584 -38.082195 -369.754150 113 95 88
-11.899584 -38.082195 -369.754150 111 95 89
-12.099585 -38.082195 -369.754150 108 94 88
9.325104 -9.570549 -92.438538 73 44 40
9.275104 -9.570549 -92.438538 78 49 44
9.225103 -9.570549 -92.438538 101 75 68
9.175104 -9.570549 -92.438538 134 112 101
9.125104 -9.570549 -92.438538 136 115 107
19.700415 -38.282196 -369.754150 142 123 108
19.500416 -38.282196 -369.754150 143 124 109
-9.899584 -38.282196 -369.754150 93 67 51
-10.099585 -38.282196 -369.754150 86 59 45
-10.299584 -38.282196 -369.754150 70 44 32
-10.499584 -38.282196 -369.754150 81 57 45
-10.699584 -38.282196 -369.754150 118 93 83
-11.699584 -38.282196 -369.754150 117 98 91
-11.899584 -38.282196 -369.754150 116 98 91
-12.099585 -38.282196 -369.754150 118 102 95
-35.899586 -38.282196 -369.754150 14 12 11
9.325104 -9.620549 -92.438538 78 49 45
9.275104 -9.620549 -92.438538 82 53 48
9.225103 -9.620549 -92.438538 107 81 74
9.175104 -9.620549 -92.438538 131 108 100
19.500416 -38.482197 -369.754150 142 123 108
-10.299584 -38.482197 -369.754150 71 47 35
-10.499584 -38.482197 -369.754150 73 48 38
-10.699584 -38.482197 -369.754150 109 83 76
-11.899584 -38.482197 -369.754150 121 100 92
-12.099585 -38.482197 -369.754150 120 101 93
-12.299584 -38.482197 -369.754150 119 101 94
-35.499584 -38.482197 -369.754150 13 13 13
-35.899586 -38.482197 -369.754150 14 14 14
9.325104 -9.670549 -92.438538 87 60 56
9.275104 -9.670549 -92.438538 91 64 60
9.225103 -9.670549 -92.438538 104 80 74
9.175104 -9.670549 -92.438538 137 114 106
-10.299584 -38.682198 -369.754150 87 65 54
-10.499584 -38.682198 -369.754150 89 69 58
-10.699584 -38.682198 -369.754150 105 82 74
-12.099585 -38.682198 -369.754150 121 100 92
-35.499584 -38.682198 -369.754150 17 15 15
-35.699585 -38.682198 -369.754150 16 14 14
-35.899586 -38.682198 -369.754150 14 12 12
13.475103 -9.720549 -92.438538 45 30 28
9.325104 -9.720549 -92.438538 104 84 79
9.275104 -9.720549 -92.438538 111 91 86
9.225103 -9.720549 -92.438538 129 107 102
9.175104 -9.720549 -92.438538 132 110 104
9.125104 -9.720549 -92.438538 137 116 108
9.025104 -9.720549 -92.438538 140 117 109
-12.099585 -38.882195 -369.754150 131 111 100
-4.324896 -9.720549 -92.438538 107 91 85
-35.899586 -38.882195 -369.754150 17 12 13
13.525104 -9.770549 -92.438538 43 29 30
13.475103 -9.770549 -92.438538 38 24 25
9.325104 -9.770549 -92.438538 127 108 103
9.275104 -9.770549 -92.438538 135 115 110
9.225103 -9.770549 -92.438538 136 116 111
9.175104 -9.770549 -92.438538 136 114 108
9.125104 -9.770549 -92.438538 141 120 112
9.075104 -9.770549 -92.438538 140 118 107
9.025104 -9.770549 -92.438538 139 117 106
-12.099585 -39.082195 -369.754150 128 109 96
-4.274896 -9.770549 -92.438538 125 105 100
-4.324896 -9.770549 -92.438538 126 107 100
13.525104 -9.820549 -92.438538 49 33 34
13.475103 -9.820549 -92.438538 47 31 32
13.425104 -9.820549 -92.438538 49 34 32
9.225103 -9.820549 -92.438538 136 114 108
9.175104 -9.820549 -92.438538 139 117 111
9.125104 -9.820549 -92.438538 140 119 111
9.025104 -9.820549 -92.438538 139 118 110
-12.099585 -39.282196 -369.754150 125 107 96
-4.174896 -9.820549 -92.438538 130 108 102
-4.224896 -9.820549 -92.438538 128 106 100
-4.274896 -9.820549 -92.438538 128 106 100
-4.324896 -9.820549 -92.438538 129 107 101
13.525104 -9.870549 -92.438538 94 79 77
13.475103 -9.870549 -92.438538 65 50 48
13.425104 -9.870549 -92.438538 44 29 27
9.225103 -9.870549 -92.438538 139 117 111
9.175104 -9.870549 -92.438538 139 117 111
-12.099585 -39.482197 -369.754150 129 111 100
-4.174896 -9.870549 -92.438538 134 112 106
-4.224896 -9.870549 -92.438538 132 110 104
-4.274896 -9.870549 -92.438538 134 110 104
13.525104 -9.920549 -92.438538 122 107 104
13.475103 -9.920549 -92.438538 73 58 55
9.225103 -9.920549 -92.438538 145 122 114
-4.124896 -9.920549 -92.438538 133 112 104
-4.174896 -9.920549 -92.438538 137 114 106
-4.224896 -9.920549 -92.438538 135 112 104
-4.274896 -9.920549 -92.438538 134 108 101
13.475103 -9.970549 -92.438538 72 58 52
9.225103 -9.970549 -92.438538 139 116 108
-5.522366 -20.584360 -190.840851 96 77 62
-5.625592 -20.584360 -190.840851 94 78 62
-4.124896 -9.970549 -92.438538 135 114 106
-4.174896 -9.970549 -92.438538 137 114 106
-4.224896 -9.970549 -92.438538 135 112 104
-4.274896 -9.970549 -92.438538 135 109 102
13.475103 -10.020549 -92.438538 81 68 60
-5.625592 -20.687586 -190.840851 59 43 27
-4.224896 -10.020549 -92.438538 135 112 104
-5.625592 -20.790812 -190.840851 52 35 22
40.700417 -40.482197 -369.754150 47 40 25
40.500416 -40.482197 -369.754150 43 36 21
40.300415 -40.482197 -369.754150 35 27 14
-5.625592 -20.894037 -190.840851 77 61 49
40.900414 -40.682198 -369.754150 56 49 34
40.700417 -40.682198 -369.754150 54 47 32
40.500416 -40.682198 -369.754150 50 43 28
40.300415 -40.682198 -369.754150 39 32 17
-5.522366 -20.997263 -190.840851 98 79 71
-5.625592 -20.997263 -190.840851 87 71 64
41.300415 -40.882195 -369.754150 30 24 13
41.100414 -40.882195 -369.754150 47 41 28
40.900414 -40.882195 -369.754150 55 48 33
40.700417 -40.882195 -369.754150 56 49 34
40.500416 -40.882195 -369.754150 52 43 29
40.300415 -40.882195 -369.754150 44 35 21
-15.389549 -27.716743 -250.680786 143 121 109
-15.525143 -27.716743 -250.680786 144 122 110
-53.749653 -34.068497 -308.128448 155 136 123
-53.916321 -34.068497 -308.128448 153 134 121
41.300415 -41.082195 -369.754150 35 28 19
41.100414 -41.082195 -369.754150 37 31 20
40.900414 -41.082195 -369.754150 46 38 25
40.700417 -41.082195 -369.754150 53 46 31
40.500416 -41.082195 -369.754150 50 41 27
40.300415 -41.082195 -369.754150 47 38 25
-15.389549 -27.852337 -250.680786 145 123 111
-15.525143 -27.852337 -250.680786 147 125 113
-53.749653 -34.235165 -308.128448 153 134 121
-53.916321 -34.235165 -308.128448 151 132 119
41.100414 -41.282196 -369.754150 27 23 12
40.900414 -41.282196 -369.754150 37 31 18
40.700417 -41.282196 -369.754150 48 40 27
40.500416 -41.282196 -369.754150 51 42 29
40.300415 -41.282196 -369.754150 47 38 25
-15.389549 -27.987930 -250.680786 146 124 112
-15.525143 -27.987930 -250.680786 148 126 114
-53.749653 -34.401829 -308.128448 155 134 119
-53.916321 -34.401829 -308.128448 152 133 118
40.700417 -41.482197 -369.754150 39 31 18
40.500416 -41.482197 -369.754150 48 39 26
-15.389549 -28.123522 -250.680786 147 125 113
-15.525143 -28.123522 -250.680786 146 127 114
-53.749653 -34.568497 -308.128448 157 136 121
-53.916321 -34.568497 -308.128448 155 136 121
36.248505 -22.997074 -204.002289 148 127 112
36.138161 -22.997074 -204.002289 151 130 115
36.027817 -22.997074 -204.002289 147 128 113
36.219406 -22.949148 -202.605011 152 130 118
36.138161 -23.107418 -204.002289 147 126 111
36.027817 -23.107418 -204.002289 148 129 114
9.675104 -10.470549 -92.438538 45 26 21
-2.850887 -17.822210 -157.342194 10 10 10
36.328995 -23.058737 -202.605011 147 128 115
36.219406 -23.058737 -202.605011 147 128 115
36.109818 -23.058737 -202.605011 149 130 117
35.890640 -23.058737 -202.605011 151 132 117
36.027817 -23.217764 -204.002289 149 127 115
35.917469 -23.217764 -204.002289 151 129 117
9.675104 -10.520549 -92.438538 51 31 26
9.625104 -10.520549 -92.438538 46 26 21
9.575104 -10.520549 -92.438538 71 51 46
-2.765780 -17.907318 -157.342194 14 12 11
-2.850887 -17.907318 -157.342194 17 15 15
-2.935993 -17.907318 -157.342194 17 15 15
-3.021100 -17.907318 -157.342194 18 16 16
36.438583 -23.168327 -202.605011 150 131 118
36.328995 -23.168327 -202.605011 149 130 117
36.219406 -23.168327 -202.605011 149 130 117
36.109818 -23.168327 -202.605011 150 131 118
36.000229 -23.168327 -202.605011 148 129 114
35.890640 -23.168327 -202.605011 148 129 116
35.781048 -23.168327 -202.605011 146 124 112
35.917469 -23.328108 -204.002289 149 127 116
9.675104 -10.570549 -92.438538 51 29 23
9.625104 -10.570549 -92.438538 48 26 21
9.575104 -10.570549 -92.438538 71 49 44
-2.765780 -17.992424 -157.342194 16 14 13
-2.850887 -17.992424 -157.342194 16 14 14
-2.935993 -17.992424 -157.342194 17 15 15
36.438583 -23.277916 -202.605011 148 129 116
36.328995 -23.277916 -202.605011 148 129 116
36.109818 -23.277916 -202.605011 148 129 116
36.000229 -23.277916 -202.605011 149 130 117
35.890640 -23.277916 -202.605011 146 127 114
35.781048 -23.277916 -202.605011 149 127 115
35.671459 -23.277916 -202.605011 152 130 118
9.725103 -10.620549 -92.438538 65 42 34
9.675104 -10.620549 -92.438538 47 23 17
9.625104 -10.620549 -92.438538 42 20 15
9.575104 -10.620549 -92.438538 57 35 30
-2.765780 -18.077530 -157.342194 16 12 11
17.675104 -10.670549 -92.438538 150 130 119
36.689884 -23.548798 -204.002289 147 128 115
36.579540 -23.548798 -204.002289 147 128 115
36.469196 -23.548798 -204.002289 146 127 114
36.358849 -23.548798 -204.002289 146 127 114
36.248505 -23.548798 -204.002289 150 131 118
36.138161 -23.548798 -204.002289 147 128 115
36.278008 -23.712332 -205.418976 151 129 117
36.166897 -23.712332 -205.418976 153 131 119
9.725103 -10.670549 -92.438538 64 41 33
9.675104 -10.670549 -92.438538 37 15 9
9.625104 -10.670549 -92.438538 34 12 7
17.775105 -10.720549 -92.438538 145 128 115
17.725103 -10.720549 -92.438538 146 128 117
17.675104 -10.720549 -92.438538 148 130 119
36.469196 -23.659143 -204.002289 147 128 115
36.358849 -23.659143 -204.002289 145 126 113
