ply
format ascii 1.0
element vertex 1110
property float x
property float y
property float z
property uchar red
property uchar green
property uchar blue
end_header
23.732742 -43.765896 -489.558838 136 116 105
-8.267258 -43.765896 -489.558838 144 127 114
-8.467257 -43.765896 -489.558838 148 131 118
-8.667257 -43.765896 -489.558838 148 132 120
-8.867258 -43.765896 -489.558838 144 130 118
27.903494 -13.373657 -148.915237 122 106 100
23.052563 -19.220064 -214.014786 22 19 11
24.132742 -43.965897 -489.558838 142 120 109
23.732742 -43.965897 -489.558838 138 118 107
-8.267258 -43.965897 -489.558838 143 126 113
-8.467257 -43.965897 -489.558838 144 127 114
-8.667257 -43.965897 -489.558838 146 130 118
-8.867258 -43.965897 -489.558838 145 129 117
-8.267258 -44.165897 -489.558838 142 125 112
-8.467257 -44.165897 -489.558838 142 125 112
-8.667257 -44.165897 -489.558838 144 127 114
-8.867258 -44.165897 -489.558838 140 124 111
9.633185 -11.091475 -122.389709 24 21 16
9.583185 -11.091475 -122.389709 25 22 17
-8.467257 -44.365898 -489.558838 143 126 113
-8.667257 -44.365898 -489.558838 143 126 113
-8.867258 -44.365898 -489.558838 138 121 108
20.183186 -11.141474 -122.389709 47 40 37
20.133184 -11.141474 -122.389709 32 26 21
20.083185 -11.141474 -122.389709 29 23 18
9.683186 -11.141474 -122.389709 27 24 19
9.633185 -11.141474 -122.389709 26 23 18
9.583185 -11.141474 -122.389709 25 22 17
9.533186 -11.141474 -122.389709 31 28 20
9.483186 -11.141474 -122.389709 28 25 17
-8.467257 -44.565895 -489.558838 142 124 113
-8.667257 -44.565895 -489.558838 144 125 112
-8.867258 -44.565895 -489.558838 141 122 109
20.183186 -11.191474 -122.389709 22 15 12
20.133184 -11.191474 -122.389709 25 19 14
20.083185 -11.191474 -122.389709 19 13 8
9.633185 -11.191474 -122.389709 22 19 14
9.583185 -11.191474 -122.389709 24 21 16
9.483186 -11.191474 -122.389709 27 24 16
-8.667257 -44.765896 -489.558838 152 133 120
-8.867258 -44.765896 -489.558838 147 128 115
20.183186 -11.241474 -122.389709 14 7 4
20.133184 -11.241474 -122.389709 16 12 7
20.083185 -11.241474 -122.389709 12 8 3
28.019548 -26.845312 -292.273926 22 17 14
9.683186 -11.241474 -122.389709 25 22 18
9.633185 -11.241474 -122.389709 23 19 14
9.583185 -11.241474 -122.389709 24 20 15
-8.667257 -44.965897 -489.558838 145 125 114
20.233185 -11.291474 -122.389709 24 17 14
20.183186 -11.291474 -122.389709 19 14 11
20.133184 -11.291474 -122.389709 15 11 6
20.083185 -11.291474 -122.389709 15 11 6
20.033184 -11.291474 -122.389709 22 18 13
19.983185 -11.291474 -122.389709 22 17 14
19.933186 -11.291474 -122.389709 21 16 15
19.883184 -11.291474 -122.389709 25 20 19
28.138950 -26.964714 -292.273926 19 16 12
28.019548 -26.964714 -292.273926 21 16 13
27.900145 -26.964714 -292.273926 23 18 15
9.683186 -11.291474 -122.389709 25 22 18
9.633185 -11.291474 -122.389709 21 16 13
9.583185 -11.291474 -122.389709 22 18 13
9.533186 -11.291474 -122.389709 24 20 15
9.483186 -11.291474 -122.389709 30 27 19
3.332742 -45.165897 -489.558838 20 13 10
3.132742 -45.165897 -489.558838 15 10 7
20.233185 -11.341475 -122.389709 20 15 12
20.183186 -11.341475 -122.389709 16 11 8
20.133184 -11.341475 -122.389709 19 15 10
20.083185 -11.341475 -122.389709 19 16 11
19.983185 -11.341475 -122.389709 17 14 10
19.933186 -11.341475 -122.389709 16 12 11
19.883184 -11.341475 -122.389709 17 13 12
28.138950 -27.084118 -292.273926 16 13 9
28.019548 -27.084118 -292.273926 21 17 16
27.900145 -27.084118 -292.273926 22 18 17
9.683186 -11.341475 -122.389709 21 19 18
9.633185 -11.341475 -122.389709 23 19 18
9.583185 -11.341475 -122.389709 21 18 14
9.533186 -11.341475 -122.389709 26 23 19
3.532742 -45.365898 -489.558838 33 19 13
3.332742 -45.365898 -489.558838 26 15 11
3.132742 -45.365898 -489.558838 20 14 9
20.283184 -11.391474 -122.389709 13 8 7
20.233185 -11.391474 -122.389709 15 10 7
20.183186 -11.391474 -122.389709 13 10 6
20.133184 -11.391474 -122.389709 16 13 8
28.138950 -27.203520 -292.273926 19 16 12
28.019548 -27.203520 -292.273926 22 18 17
9.683186 -11.391474 -122.389709 23 21 21
9.633185 -11.391474 -122.389709 28 23 24
9.583185 -11.391474 -122.389709 25 21 20
3.532742 -45.565895 -489.558838 52 34 27
3.332742 -45.565895 -489.558838 30 16 10
3.132742 -45.565895 -489.558838 32 22 15
20.233185 -11.441474 -122.389709 14 11 7
20.183186 -11.441474 -122.389709 14 11 7
20.133184 -11.441474 -122.389709 12 9 4
27.372202 -26.921116 -287.975800 19 15 14
27.254555 -26.921116 -287.975800 19 15 14
9.683186 -11.441474 -122.389709 19 18 20
9.633185 -11.441474 -122.389709 24 21 23
3.332742 -45.765896 -489.558838 48 30 23
3.132742 -45.765896 -489.558838 48 35 27
2.932742 -45.765896 -489.558838 64 53 45
2.132742 -45.765896 -489.558838 16 11 8
1.932742 -45.765896 -489.558838 12 7 8
1.732742 -45.765896 -489.558838 14 9 10
1.532742 -45.765896 -489.558838 27 23 22
20.183186 -11.491474 -122.389709 10 7 3
27.372202 -27.038763 -287.975800 20 16 15
2.932742 -45.965897 -489.558838 95 79 67
2.332742 -45.965897 -489.558838 55 46 33
2.132742 -45.965897 -489.558838 22 16 11
1.932742 -45.965897 -489.558838 16 11 10
1.732742 -45.965897 -489.558838 18 13 12
1.532742 -45.965897 -489.558838 24 19 18
1.332742 -45.965897 -489.558838 30 22 22
27.372202 -27.156410 -287.975800 15 13 13
27.254555 -27.156410 -287.975800 16 14 13
1.732742 -46.165897 -489.558838 24 13 9
1.532742 -46.165897 -489.558838 25 14 10
1.332742 -46.165897 -489.558838 41 29 27
-13.031269 -12.310905 -130.549026 49 45 44
-13.084602 -12.310905 -130.549026 48 43 44
27.372202 -27.274057 -287.975800 12 10 10
27.254555 -27.274057 -287.975800 14 12 12
27.136908 -27.274057 -287.975800 16 12 11
-13.031269 -12.364239 -130.549026 35 30 31
-13.084602 -12.364239 -130.549026 43 41 41
-13.137936 -12.364239 -130.549026 55 50 51
-13.031269 -12.417572 -130.549026 49 44 46
-22.556082 -12.376318 -130.115311 149 130 117
59.132740 -46.765896 -489.558838 33 21 9
53.932739 -46.765896 -489.558838 26 18 18
53.732738 -46.765896 -489.558838 21 14 19
53.532738 -46.765896 -489.558838 24 18 23
-31.467258 -46.765896 -489.558838 22 19 14
-31.667257 -46.765896 -489.558838 22 19 14
-13.031269 -12.470905 -130.549026 56 50 55
-22.556082 -12.429474 -130.115311 147 128 115
59.332741 -46.965897 -489.558838 42 26 19
59.132740 -46.965897 -489.558838 36 22 10
58.932739 -46.965897 -489.558838 42 25 12
58.732738 -46.965897 -489.558838 46 23 8
58.532738 -46.965897 -489.558838 59 30 16
53.932739 -46.965897 -489.558838 21 13 14
53.732738 -46.965897 -489.558838 21 14 19
53.532738 -46.965897 -489.558838 19 12 19
53.332741 -46.965897 -489.558838 16 11 12
-31.467258 -46.965897 -489.558838 13 10 6
-31.667257 -46.965897 -489.558838 11 8 4
-22.449770 -12.482631 -130.115311 150 128 116
-22.556082 -12.482631 -130.115311 148 126 114
-22.609240 -12.482631 -130.115311 147 125 114
59.332741 -47.165897 -489.558838 39 23 16
59.132740 -47.165897 -489.558838 40 24 12
58.932739 -47.165897 -489.558838 49 30 17
58.732738 -47.165897 -489.558838 53 30 15
58.532738 -47.165897 -489.558838 65 33 20
53.932739 -47.165897 -489.558838 16 10 11
53.732738 -47.165897 -489.558838 17 10 15
53.532738 -47.165897 -489.558838 18 11 16
53.332741 -47.165897 -489.558838 16 11 13
-31.467258 -47.165897 -489.558838 16 13 9
-13.516815 -11.791474 -122.389709 44 39 36
-22.449770 -12.535787 -130.115311 150 126 114
-22.502926 -12.535787 -130.115311 147 125 113
-22.556082 -12.535787 -130.115311 146 124 112
59.132740 -47.365898 -489.558838 44 25 17
58.932739 -47.365898 -489.558838 50 30 19
58.732738 -47.365898 -489.558838 57 34 19
58.532738 -47.365898 -489.558838 66 34 21
53.932739 -47.365898 -489.558838 17 13 12
53.732738 -47.365898 -489.558838 14 9 11
53.532738 -47.365898 -489.558838 18 12 17
53.332741 -47.365898 -489.558838 18 11 14
-0.916814 -11.841475 -122.389709 48 38 28
-0.966814 -11.841475 -122.389709 53 44 31
-31.467258 -47.365898 -489.558838 25 21 20
-31.667257 -47.365898 -489.558838 25 21 20
-31.867258 -47.365898 -489.558838 26 22 21
-32.067257 -47.365898 -489.558838 25 21 20
-32.267258 -47.365898 -489.558838 33 29 28
-32.467258 -47.365898 -489.558838 45 42 38
-13.516815 -11.841475 -122.389709 40 35 32
59.132740 -47.565895 -489.558838 44 26 19
58.932739 -47.565895 -489.558838 46 26 15
53.732738 -47.565895 -489.558838 21 16 18
53.532738 -47.565895 -489.558838 16 10 15
53.332741 -47.565895 -489.558838 18 11 16
13.920273 -17.455376 -179.654617 129 110 97
13.846878 -17.455376 -179.654617 127 108 95
13.773483 -17.455376 -179.654617 132 113 100
13.700089 -17.455376 -179.654617 136 118 107
-0.916814 -11.891474 -122.389709 52 43 30
-0.966814 -11.891474 -122.389709 54 45 31
-18.667257 -47.565895 -489.558838 19 14 16
-31.467258 -47.565895 -489.558838 37 32 33
-31.667257 -47.565895 -489.558838 42 37 38
-31.867258 -47.565895 -489.558838 46 41 42
-32.067257 -47.565895 -489.558838 44 40 39
-32.267258 -47.565895 -489.558838 44 39 40
-32.467258 -47.565895 -489.558838 43 39 38
-13.466815 -11.891474 -122.389709 34 29 26
-13.516815 -11.891474 -122.389709 28 23 20
53.532738 -47.765896 -489.558838 18 12 17
53.332741 -47.765896 -489.558838 19 10 20
53.132740 -47.765896 -489.558838 18 9 19
13.773483 -17.528769 -179.654617 130 112 101
13.700089 -17.528769 -179.654617 134 116 105
-0.866814 -11.941474 -122.389709 79 67 55
-0.916814 -11.941474 -122.389709 69 57 45
-0.966814 -11.941474 -122.389709 55 44 30
-1.066814 -11.941474 -122.389709 75 63 53
-18.667257 -47.765896 -489.558838 25 19 24
-18.867258 -47.765896 -489.558838 29 23 28
-19.067257 -47.765896 -489.558838 32 26 31
-31.467258 -47.765896 -489.558838 39 32 35
-31.667257 -47.765896 -489.558838 50 43 46
-31.867258 -47.765896 -489.558838 51 44 47
-32.067257 -47.765896 -489.558838 47 41 42
-32.267258 -47.765896 -489.558838 44 37 40
-32.467258 -47.765896 -489.558838 40 34 35
-13.466815 -11.941474 -122.389709 25 22 18
-13.516815 -11.941474 -122.389709 24 21 17
-13.566815 -11.941474 -122.389709 23 20 15
-13.616816 -11.941474 -122.389709 24 21 16
53.332741 -47.965897 -489.558838 19 11 21
13.773483 -17.602163 -179.654617 131 113 102
13.700089 -17.602163 -179.654617 136 118 107
-0.916814 -11.991474 -122.389709 55 43 33
-0.966814 -11.991474 -122.389709 48 36 26
-1.016814 -11.991474 -122.389709 44 32 22
-1.066814 -11.991474 -122.389709 40 29 21
-18.667257 -47.965897 -489.558838 31 25 30
-18.867258 -47.965897 -489.558838 27 21 26
-19.067257 -47.965897 -489.558838 28 22 27
-31.467258 -47.965897 -489.558838 46 39 44
-31.667257 -47.965897 -489.558838 47 40 45
-31.867258 -47.965897 -489.558838 42 35 40
-32.067257 -47.965897 -489.558838 41 34 37
-32.267258 -47.965897 -489.558838 44 37 40
-32.467258 -47.965897 -489.558838 51 44 47
-13.466815 -11.991474 -122.389709 22 19 15
-13.516815 -11.991474 -122.389709 22 19 15
-13.566815 -11.991474 -122.389709 23 20 15
-13.616816 -11.991474 -122.389709 24 21 16
13.773483 -17.675558 -179.654617 136 117 109
-0.966814 -12.041474 -122.389709 39 22 19
-1.016814 -12.041474 -122.389709 25 10 7
-1.066814 -12.041474 -122.389709 27 16 12
-18.667257 -48.165897 -489.558838 33 27 32
-18.867258 -48.165897 -489.558838 25 19 24
-19.067257 -48.165897 -489.558838 27 21 26
-31.267258 -48.165897 -489.558838 40 33 40
-31.467258 -48.165897 -489.558838 47 39 46
-31.667257 -48.165897 -489.558838 37 30 35
-31.867258 -48.165897 -489.558838 36 29 34
-32.067257 -48.165897 -489.558838 44 37 42
-32.267258 -48.165897 -489.558838 46 39 42
-32.467258 -48.165897 -489.558838 50 43 46
-13.466815 -12.041474 -122.389709 25 22 18
-13.516815 -12.041474 -122.389709 25 22 18
-31.067257 -48.365898 -489.558838 35 28 35
-31.267258 -48.365898 -489.558838 37 30 37
-31.467258 -48.365898 -489.558838 52 44 51
-31.667257 -48.365898 -489.558838 33 25 32
-31.867258 -48.365898 -489.558838 34 27 32
-32.067257 -48.365898 -489.558838 46 39 44
-32.267258 -48.365898 -489.558838 43 36 39
-32.467258 -48.365898 -489.558838 44 37 40
-32.667259 -48.365898 -489.558838 46 39 42
-32.867256 -48.365898 -489.558838 53 46 49
-33.067257 -48.365898 -489.558838 55 49 50
35.932743 -48.565895 -489.558838 133 117 105
35.732742 -48.565895 -489.558838 131 114 105
35.532742 -48.565895 -489.558838 137 120 111
35.332741 -48.565895 -489.558838 136 118 111
-30.867258 -48.565895 -489.558838 32 27 29
-31.067257 -48.565895 -489.558838 24 17 24
-31.267258 -48.565895 -489.558838 30 23 30
-31.467258 -48.565895 -489.558838 46 38 45
-31.667257 -48.565895 -489.558838 33 25 32
-31.867258 -48.565895 -489.558838 37 30 35
-32.067257 -48.565895 -489.558838 48 41 46
-32.267258 -48.565895 -489.558838 44 37 40
-32.467258 -48.565895 -489.558838 49 42 45
-32.667259 -48.565895 -489.558838 59 53 54
-32.867256 -48.565895 -489.558838 68 62 63
-33.067257 -48.565895 -489.558838 57 51 52
-33.267258 -48.565895 -489.558838 35 29 30
18.333185 -12.191474 -122.389709 48 28 27
18.283184 -12.191474 -122.389709 37 19 18
18.233185 -12.191474 -122.389709 27 11 12
36.332741 -48.765896 -489.558838 136 119 106
36.132744 -48.765896 -489.558838 134 118 106
35.932743 -48.765896 -489.558838 130 114 102
35.732742 -48.765896 -489.558838 133 116 107
35.532742 -48.765896 -489.558838 136 119 110
35.332741 -48.765896 -489.558838 135 117 110
-30.867258 -48.765896 -489.558838 41 36 38
-31.067257 -48.765896 -489.558838 38 32 37
-31.267258 -48.765896 -489.558838 29 22 29
-31.467258 -48.765896 -489.558838 39 31 38
-31.667257 -48.765896 -489.558838 39 31 38
-31.867258 -48.765896 -489.558838 47 40 45
-32.067257 -48.765896 -489.558838 52 45 50
-32.267258 -48.765896 -489.558838 47 40 43
-32.467258 -48.765896 -489.558838 56 50 51
-32.667259 -48.765896 -489.558838 65 59 60
-32.867256 -48.765896 -489.558838 70 64 65
-33.067257 -48.765896 -489.558838 66 60 61
18.333185 -12.241474 -122.389709 45 24 23
18.283184 -12.241474 -122.389709 38 18 17
18.233185 -12.241474 -122.389709 26 10 11
18.183186 -12.241474 -122.389709 21 7 8
36.332741 -48.965897 -489.558838 134 117 104
35.732742 -48.965897 -489.558838 133 118 109
-30.867258 -48.965897 -489.558838 52 47 49
-31.067257 -48.965897 -489.558838 50 44 49
-31.267258 -48.965897 -489.558838 36 30 35
-31.467258 -48.965897 -489.558838 46 39 46
-31.667257 -48.965897 -489.558838 47 40 47
-31.867258 -48.965897 -489.558838 50 43 48
-32.067257 -48.965897 -489.558838 50 43 48
-32.267258 -48.965897 -489.558838 46 39 42
-32.467258 -48.965897 -489.558838 55 49 50
-32.667259 -48.965897 -489.558838 60 54 55
18.333185 -12.291474 -122.389709 39 18 17
18.283184 -12.291474 -122.389709 37 16 18
18.233185 -12.291474 -122.389709 32 13 16
18.183186 -12.291474 -122.389709 28 11 14
-31.267258 -49.165897 -489.558838 44 38 43
-31.467258 -49.165897 -489.558838 46 40 45
-31.667257 -49.165897 -489.558838 44 38 43
-31.867258 -49.165897 -489.558838 44 37 42
-32.067257 -49.165897 -489.558838 47 40 43
-32.267258 -49.165897 -489.558838 47 40 43
-32.467258 -49.165897 -489.558838 51 45 46
18.233185 -12.341475 -122.389709 37 15 20
-6.891065 -17.474653 -173.295166 34 29 31
-31.267258 -49.365898 -489.558838 39 36 38
-31.467258 -49.365898 -489.558838 44 41 43
-31.667257 -49.365898 -489.558838 42 39 41
-31.867258 -49.365898 -489.558838 42 37 39
-32.067257 -49.365898 -489.558838 41 36 38
-32.267258 -49.365898 -489.558838 47 40 43
-32.467258 -49.365898 -489.558838 41 34 37
-32.667259 -49.365898 -489.558838 47 38 41
-6.820268 -17.545450 -173.295166 33 28 30
-6.891065 -17.545450 -173.295166 31 26 28
-6.961861 -17.545450 -173.295166 31 26 27
-31.267258 -49.565895 -489.558838 33 30 32
-31.467258 -49.565895 -489.558838 40 37 39
-31.667257 -49.565895 -489.558838 39 36 38
-31.867258 -49.565895 -489.558838 41 36 38
-32.067257 -49.565895 -489.558838 43 38 40
-32.267258 -49.565895 -489.558838 43 36 39
-32.467258 -49.565895 -489.558838 38 31 34
-42.820969 -38.127613 -376.583710 17 15 15
80.132736 -49.765896 -489.558838 130 107 105
79.932739 -49.765896 -489.558838 134 111 109
79.732742 -49.765896 -489.558838 134 112 107
79.132736 -49.765896 -489.558838 131 109 103
78.932739 -49.765896 -489.558838 130 108 102
-6.820268 -17.616247 -173.295166 18 15 17
-6.891065 -17.616247 -173.295166 21 16 18
-42.820969 -38.281460 -376.583710 19 14 15
-42.974815 -38.281460 -376.583710 22 17 18
80.332741 -49.965897 -489.558838 134 112 107
80.132736 -49.965897 -489.558838 133 110 108
79.932739 -49.965897 -489.558838 136 114 109
79.732742 -49.965897 -489.558838 135 113 108
79.132736 -49.965897 -489.558838 128 106 100
78.932739 -49.965897 -489.558838 130 108 102
55.732738 -49.965897 -489.558838 74 49 47
-6.820268 -17.687042 -173.295166 10 8 8
-35.673401 -37.710110 -369.478363 36 32 37
-35.824345 -37.710110 -369.478363 28 24 29
-42.820969 -38.435307 -376.583710 20 15 16
-42.974815 -38.435307 -376.583710 21 17 16
80.332741 -50.165897 -489.558838 136 114 109
79.932739 -50.165897 -489.558838 133 111 106
78.932739 -50.165897 -489.558838 132 110 104
55.732738 -50.165897 -489.558838 71 48 46
-6.749472 -17.757839 -173.295166 10 10 10
-6.820268 -17.757839 -173.295166 10 10 10
-35.673401 -37.861053 -369.478363 30 24 29
-42.820969 -38.589149 -376.583710 22 17 16
-42.974815 -38.589149 -376.583710 20 15 14
43.049797 -26.335110 -255.978470 142 123 110
78.932739 -50.365898 -489.558838 139 117 111
55.732738 -50.365898 -489.558838 65 42 40
-35.673401 -38.011997 -369.478363 18 13 15
-35.824345 -38.011997 -369.478363 12 7 9
43.363525 -26.439684 -255.978470 143 124 109
43.258949 -26.439684 -255.978470 141 122 107
43.154373 -26.439684 -255.978470 144 125 110
43.049797 -26.439684 -255.978470 142 123 110
42.945225 -26.439684 -255.978470 140 115 105
79.132736 -50.565895 -489.558838 134 114 103
78.932739 -50.565895 -489.558838 138 117 109
57.732738 -50.565895 -489.558838 64 42 36
57.532738 -50.565895 -489.558838 69 47 41
55.732738 -50.565895 -489.558838 66 45 43
-35.673401 -38.162941 -369.478363 8 3 5
-35.824345 -38.162941 -369.478363 7 2 4
43.363525 -26.544260 -255.978470 143 124 109
43.258949 -26.544260 -255.978470 142 123 108
57.732738 -50.765896 -489.558838 58 39 32
57.532738 -50.765896 -489.558838 60 38 32
57.332741 -50.765896 -489.558838 61 39 33
55.732738 -50.765896 -489.558838 73 52 50
-35.824345 -38.313885 -369.478363 9 4 5
43.468098 -26.648834 -255.978470 140 124 108
43.363525 -26.648834 -255.978470 140 124 107
43.258949 -26.648834 -255.978470 138 122 105
57.732738 -50.965897 -489.558838 50 31 26
57.532738 -50.965897 -489.558838 50 30 25
55.732738 -50.965897 -489.558838 90 71 68
-3.667258 -50.965897 -489.558838 69 55 43
57.732738 -51.165897 -489.558838 46 27 22
57.532738 -51.165897 -489.558838 50 31 26
55.932739 -51.165897 -489.558838 116 97 89
55.732738 -51.165897 -489.558838 115 96 91
-3.667258 -51.165897 -489.558838 63 49 37
-3.867258 -51.165897 -489.558838 75 59 47
-35.413807 -40.932716 -391.647064 10 11 9
-35.573807 -40.932716 -391.647064 9 10 8
-35.733807 -40.932716 -391.647064 6 6 6
80.732742 -51.365894 -489.558838 139 117 106
80.532738 -51.365894 -489.558838 143 117 110
80.332741 -51.365894 -489.558838 141 115 108
80.132736 -51.365894 -489.558838 142 116 110
57.732738 -51.365894 -489.558838 43 27 21
57.532738 -51.365894 -489.558838 50 34 28
56.132740 -51.365894 -489.558838 71 55 43
55.932739 -51.365894 -489.558838 107 90 81
55.732738 -51.365894 -489.558838 120 102 95
13.842790 -30.215231 -287.975800 143 123 112
13.725142 -30.215231 -287.975800 143 122 114
-3.867258 -51.365894 -489.558838 98 80 69
-35.413807 -41.092716 -391.647064 14 12 11
-35.573807 -41.092716 -391.647064 13 11 10
80.932739 -51.565895 -489.558838 140 118 106
80.732742 -51.565895 -489.558838 139 117 105
80.532738 -51.565895 -489.558838 143 118 108
80.332741 -51.565895 -489.558838 143 117 110
57.732738 -51.565895 -489.558838 36 24 18
57.532738 -51.565895 -489.558838 38 26 20
56.132740 -51.565895 -489.558838 65 49 37
13.842790 -30.332878 -287.975800 141 121 110
13.725142 -30.332878 -287.975800 142 121 113
-3.667258 -51.565895 -489.558838 73 56 47
-3.867258 -51.565895 -489.558838 113 94 86
-35.413807 -41.252716 -391.647064 14 12 11
80.732742 -51.765892 -489.558838 140 118 106
57.732738 -51.765892 -489.558838 32 23 19
57.532738 -51.765892 -489.558838 29 21 14
13.960437 -30.450525 -287.975800 142 121 113
13.842790 -30.450525 -287.975800 141 120 112
13.489848 -30.450525 -287.975800 142 121 113
-3.467258 -51.765892 -489.558838 61 45 38
-3.667258 -51.765892 -489.558838 67 51 44
-3.867258 -51.765892 -489.558838 105 87 80
-35.413807 -41.412716 -391.647064 22 18 17
13.960437 -30.568172 -287.975800 144 123 115
13.842790 -30.568172 -287.975800 144 123 115
13.725142 -30.568172 -287.975800 144 123 115
13.607495 -30.568172 -287.975800 146 125 117
13.489848 -30.568172 -287.975800 143 122 114
13.372201 -30.568172 -287.975800 142 121 113
13.254555 -30.568172 -287.975800 143 122 114
-3.667258 -51.965893 -489.558838 54 38 31
-3.867258 -51.965893 -489.558838 88 69 64
13.960437 -30.685820 -287.975800 145 123 117
13.607495 -30.685820 -287.975800 145 123 117
13.489848 -30.685820 -287.975800 143 121 115
13.372201 -30.685820 -287.975800 143 121 115
-8.485278 -37.938831 -356.042786 98 85 77
-8.485278 -38.084286 -356.042786 114 96 89
-8.485278 -38.229740 -356.042786 121 98 90
66.886414 -38.727261 -359.309235 143 124 111
13.561567 -30.151939 -279.747894 145 125 114
13.332995 -30.151939 -279.747894 145 123 111
13.218710 -30.151939 -279.747894 145 124 109
-8.485278 -38.375195 -356.042786 125 99 92
66.886414 -38.874050 -359.309235 144 125 112
13.561567 -30.266226 -279.747894 146 126 115
13.218710 -30.266226 -279.747894 144 122 110
-8.485278 -38.520649 -356.042786 127 101 94
67.033203 -39.020840 -359.309235 142 123 110
66.886414 -39.020840 -359.309235 146 127 114
59.532738 -53.165894 -489.558838 41 32 23
59.332741 -53.165894 -489.558838 41 32 23
13.561567 -30.380510 -279.747894 146 126 115
13.218710 -30.380510 -279.747894 147 125 114
13.104424 -30.380510 -279.747894 148 126 115
-8.485278 -38.666103 -356.042786 124 98 91
67.033203 -39.167629 -359.309235 143 124 109
66.886414 -39.167629 -359.309235 148 129 114
59.732738 -53.365894 -489.558838 47 37 27
59.532738 -53.365894 -489.558838 45 35 25
59.332741 -53.365894 -489.558838 42 33 23
13.561567 -30.494797 -279.747894 146 125 117
13.447281 -30.494797 -279.747894 147 126 118
13.332995 -30.494797 -279.747894 149 126 118
13.218710 -30.494797 -279.747894 151 128 120
-8.067258 -53.365894 -489.558838 80 50 39
-8.467257 -53.365894 -489.558838 90 57 48
-8.485278 -38.811558 -356.042786 124 98 91
67.033203 -39.314419 -359.309235 144 125 110
59.732738 -53.565895 -489.558838 49 39 29
59.532738 -53.565895 -489.558838 50 40 30
59.332741 -53.565895 -489.558838 47 38 28
13.561567 -30.609081 -279.747894 146 125 117
13.447281 -30.609081 -279.747894 147 126 118
13.332995 -30.609081 -279.747894 149 126 118
13.218710 -30.609081 -279.747894 152 129 121
-7.867258 -53.565895 -489.558838 95 63 52
-8.067258 -53.565895 -489.558838 103 70 61
-8.267258 -53.565895 -489.558838 102 66 58
-8.467257 -53.565895 -489.558838 92 56 48
-8.485278 -38.957012 -356.042786 129 104 94
59.532738 -53.765892 -489.558838 43 33 23
59.332741 -53.765892 -489.558838 43 32 24
-7.667258 -53.765892 -489.558838 87 58 49
-7.867258 -53.765892 -489.558838 99 68 59
-8.067258 -53.765892 -489.558838 96 64 58
-8.467257 -53.765892 -489.558838 84 50 44
59.732738 -53.965893 -489.558838 41 31 21
59.532738 -53.965893 -489.558838 32 22 12
59.332741 -53.965893 -489.558838 31 20 12
11.500566 -20.461002 -185.614731 150 128 116
11.348907 -20.461002 -185.614731 146 127 114
-7.467257 -53.965893 -489.558838 73 46 36
-7.667258 -53.965893 -489.558838 74 46 39
-7.867258 -53.965893 -489.558838 82 53 46
-8.067258 -53.965893 -489.558838 79 47 41
59.932739 -54.165894 -489.558838 49 36 28
59.732738 -54.165894 -489.558838 36 25 17
59.532738 -54.165894 -489.558838 29 18 10
59.332741 -54.165894 -489.558838 27 16 8
58.732738 -54.165894 -489.558838 42 32 25
58.532738 -54.165894 -489.558838 38 31 22
11.500566 -20.536831 -185.614731 151 129 118
11.348907 -20.536831 -185.614731 152 130 119
0.383186 -13.541473 -122.389709 51 41 31
-0.614558 -22.687284 -205.050827 40 33 24
-0.698328 -22.687284 -205.050827 42 33 23
-7.667258 -54.165894 -489.558838 55 31 25
-7.867258 -54.165894 -489.558838 64 38 32
59.932739 -54.365894 -489.558838 49 33 26
59.732738 -54.365894 -489.558838 35 22 14
59.532738 -54.365894 -489.558838 28 17 9
59.332741 -54.365894 -489.558838 26 15 7
59.132740 -54.365894 -489.558838 35 23 17
58.732738 -54.365894 -489.558838 44 34 27
58.532738 -54.365894 -489.558838 43 36 27
11.500566 -20.612661 -185.614731 152 129 121
11.424736 -20.612661 -185.614731 152 129 121
11.348907 -20.612661 -185.614731 150 127 119
0.383186 -13.591474 -122.389709 34 25 15
0.333186 -13.591474 -122.389709 26 19 10
0.283186 -13.591474 -122.389709 30 24 17
0.233186 -13.591474 -122.389709 29 24 21
-0.614558 -22.771055 -205.050827 29 23 18
-7.667258 -54.365894 -489.558838 46 24 19
-55.667259 -54.365894 -489.558838 144 119 109
59.932739 -54.565895 -489.558838 47 31 24
59.732738 -54.565895 -489.558838 31 17 11
59.532738 -54.565895 -489.558838 29 15 9
59.332741 -54.565895 -489.558838 25 13 7
58.732738 -54.565895 -489.558838 42 32 25
10.933186 -13.641474 -122.389709 147 129 118
11.787941 -20.398464 -183.012650 152 133 118
11.424736 -20.688490 -185.614731 152 128 122
0.483186 -13.641474 -122.389709 96 85 71
0.433186 -13.641474 -122.389709 73 64 51
0.383186 -13.641474 -122.389709 39 30 20
0.333186 -13.641474 -122.389709 30 23 14
0.283186 -13.641474 -122.389709 27 21 14
0.233186 -13.641474 -122.389709 24 19 16
-0.614558 -22.854824 -205.050827 28 25 21
-0.698328 -22.854824 -205.050827 30 26 21
-55.267262 -54.565895 -489.558838 138 119 111
-55.467262 -54.565895 -489.558838 140 117 109
-55.667259 -54.565895 -489.558838 141 119 108
-55.867260 -54.565895 -489.558838 146 124 113
-56.067261 -54.565895 -489.558838 143 121 109
-56.867260 -54.565895 -489.558838 140 122 111
59.932739 -54.765892 -489.558838 47 31 24
59.732738 -54.765892 -489.558838 31 17 11
59.532738 -54.765892 -489.558838 31 17 11
59.332741 -54.765892 -489.558838 28 16 12
59.132740 -54.765892 -489.558838 31 19 15
58.732738 -54.765892 -489.558838 42 31 27
11.033186 -13.691473 -122.389709 147 129 118
10.933186 -13.691473 -122.389709 150 132 121
10.883185 -13.691473 -122.389709 149 131 120
10.833185 -13.691473 -122.389709 151 131 120
10.783186 -13.691473 -122.389709 149 129 118
10.733186 -13.691473 -122.389709 149 127 115
11.787941 -20.473230 -183.012650 148 129 114
0.533186 -13.691473 -122.389709 97 84 70
0.483186 -13.691473 -122.389709 91 80 66
0.433186 -13.691473 -122.389709 77 68 55
0.383186 -13.691473 -122.389709 40 31 21
0.333186 -13.691473 -122.389709 30 23 14
0.283186 -13.691473 -122.389709 26 20 13
0.233186 -13.691473 -122.389709 24 20 15
-0.614558 -22.938595 -205.050827 27 25 24
-0.698328 -22.938595 -205.050827 30 27 23
-55.267262 -54.765892 -489.558838 140 121 114
-55.467262 -54.765892 -489.558838 140 118 112
-55.667259 -54.765892 -489.558838 140 117 109
-55.867260 -54.765892 -489.558838 145 123 112
-56.067261 -54.765892 -489.558838 145 123 111
-56.867260 -54.765892 -489.558838 140 123 110
-57.067261 -54.765892 -489.558838 146 127 114
60.532738 -54.965893 -489.558838 54 37 28
60.132740 -54.965893 -489.558838 55 37 30
59.932739 -54.965893 -489.558838 48 32 25
59.732738 -54.965893 -489.558838 32 18 12
59.532738 -54.965893 -489.558838 30 15 12
59.332741 -54.965893 -489.558838 29 16 14
59.132740 -54.965893 -489.558838 31 18 16
58.932739 -54.965893 -489.558838 36 24 22
58.732738 -54.965893 -489.558838 41 30 26
58.532738 -54.965893 -489.558838 42 34 27
58.332741 -54.965893 -489.558838 41 35 24
58.132740 -54.965893 -489.558838 41 36 21
57.932739 -54.965893 -489.558838 39 35 17
11.083185 -13.741473 -122.389709 150 131 118
11.033186 -13.741473 -122.389709 148 128 117
10.983186 -13.741473 -122.389709 149 128 120
10.933186 -13.741473 -122.389709 152 132 121
10.883185 -13.741473 -122.389709 151 131 120
10.833185 -13.741473 -122.389709 152 130 119
10.783186 -13.741473 -122.389709 151 129 118
10.733186 -13.741473 -122.389709 151 126 116
10.683186 -13.741473 -122.389709 152 127 117
11.787941 -20.547998 -183.012650 147 128 113
11.713175 -20.547998 -183.012650 147 131 115
0.533186 -13.741473 -122.389709 90 74 61
0.483186 -13.741473 -122.389709 80 66 54
0.433186 -13.741473 -122.389709 72 60 50
0.383186 -13.741473 -122.389709 37 27 17
0.333186 -13.741473 -122.389709 29 20 11
0.283186 -13.741473 -122.389709 32 24 17
0.233186 -13.741473 -122.389709 34 25 21
-0.698328 -23.022364 -205.050827 24 21 17
-55.267262 -54.965893 -489.558838 140 121 114
-55.467262 -54.965893 -489.558838 145 123 117
-55.667259 -54.965893 -489.558838 144 121 113
-55.867260 -54.965893 -489.558838 145 123 112
-56.067261 -54.965893 -489.558838 146 124 112
-56.867260 -54.965893 -489.558838 144 125 110
-57.067261 -54.965893 -489.558838 147 125 113
35.914379 -21.740253 -192.929596 146 127 114
35.835564 -21.740253 -192.929596 144 125 112
61.132740 -55.165894 -489.558838 61 42 29
60.932739 -55.165894 -489.558838 56 36 25
60.732738 -55.165894 -489.558838 54 36 25
60.532738 -55.165894 -489.558838 57 38 30
60.332741 -55.165894 -489.558838 58 41 32
60.132740 -55.165894 -489.558838 59 41 34
59.932739 -55.165894 -489.558838 54 38 32
59.732738 -55.165894 -489.558838 38 21 18
59.532738 -55.165894 -489.558838 28 13 10
59.332741 -55.165894 -489.558838 26 13 11
59.132740 -55.165894 -489.558838 28 15 13
58.932739 -55.165894 -489.558838 31 19 17
58.732738 -55.165894 -489.558838 35 24 20
58.532738 -55.165894 -489.558838 40 32 25
58.332741 -55.165894 -489.558838 40 34 23
58.132740 -55.165894 -489.558838 44 39 24
57.932739 -55.165894 -489.558838 43 39 20
11.033186 -13.791473 -122.389709 150 129 121
10.983186 -13.791473 -122.389709 150 129 121
10.933186 -13.791473 -122.389709 151 130 122
10.783186 -13.791473 -122.389709 151 129 118
10.733186 -13.791473 -122.389709 150 125 115
10.683186 -13.791473 -122.389709 153 128 118
11.713175 -20.622765 -183.012650 153 134 119
11.638409 -20.622765 -183.012650 146 129 116
0.533186 -13.791473 -122.389709 94 77 64
0.433186 -13.791473 -122.389709 78 63 54
0.383186 -13.791473 -122.389709 50 38 28
0.333186 -13.791473 -122.389709 35 24 16
0.283186 -13.791473 -122.389709 31 22 13
0.233186 -13.791473 -122.389709 34 24 17
-55.267262 -55.165894 -489.558838 145 123 118
-55.467262 -55.165894 -489.558838 149 124 120
-55.667259 -55.165894 -489.558838 149 125 119
-55.867260 -55.165894 -489.558838 147 124 116
-56.067261 -55.165894 -489.558838 144 122 111
-56.867260 -55.165894 -489.558838 146 126 109
-57.067261 -55.165894 -489.558838 147 126 111
35.914379 -21.819071 -192.929596 146 127 114
35.835564 -21.819071 -192.929596 141 124 111
35.756744 -21.819071 -192.929596 140 123 110
61.932739 -55.365894 -489.558838 70 51 38
60.932739 -55.365894 -489.558838 55 35 24
60.732738 -55.365894 -489.558838 53 35 24
60.532738 -55.365894 -489.558838 58 39 31
60.332741 -55.365894 -489.558838 61 42 34
60.132740 -55.365894 -489.558838 64 46 39
59.932739 -55.365894 -489.558838 60 44 38
59.732738 -55.365894 -489.558838 47 30 27
59.532738 -55.365894 -489.558838 30 15 13
59.332741 -55.365894 -489.558838 26 12 13
59.132740 -55.365894 -489.558838 28 14 15
58.932739 -55.365894 -489.558838 28 16 14
58.732738 -55.365894 -489.558838 31 20 16
58.532738 -55.365894 -489.558838 39 32 23
58.332741 -55.365894 -489.558838 40 34 21
58.132740 -55.365894 -489.558838 44 40 22
57.932739 -55.365894 -489.558838 47 43 24
11.713175 -20.697531 -183.012650 153 134 119
11.638409 -20.697531 -183.012650 151 132 119
0.433186 -13.841474 -122.389709 92 73 66
0.383186 -13.841474 -122.389709 70 52 45
0.333186 -13.841474 -122.389709 48 35 27
0.283186 -13.841474 -122.389709 31 20 12
0.233186 -13.841474 -122.389709 29 17 11
-55.667259 -55.365894 -489.558838 148 123 119
-55.867260 -55.365894 -489.558838 147 121 114
-56.067261 -55.365894 -489.558838 148 123 113
-56.867260 -55.365894 -489.558838 148 125 109
35.914379 -21.897888 -192.929596 148 129 116
35.835564 -21.897888 -192.929596 148 129 116
35.756744 -21.897888 -192.929596 144 127 114
62.132740 -55.565895 -489.558838 61 42 29
61.932739 -55.565895 -489.558838 69 50 37
61.732738 -55.565895 -489.558838 75 53 41
61.532738 -55.565895 -489.558838 70 48 36
60.932739 -55.565895 -489.558838 52 33 20
60.732738 -55.565895 -489.558838 53 33 22
60.532738 -55.565895 -489.558838 57 39 28
60.332741 -55.565895 -489.558838 61 42 34
60.132740 -55.565895 -489.558838 65 47 40
59.932739 -55.565895 -489.558838 62 46 39
59.732738 -55.565895 -489.558838 47 32 29
59.532738 -55.565895 -489.558838 27 12 10
59.332741 -55.565895 -489.558838 24 11 9
59.132740 -55.565895 -489.558838 27 13 14
58.932739 -55.565895 -489.558838 26 13 11
58.732738 -55.565895 -489.558838 27 16 12
58.532738 -55.565895 -489.558838 39 30 21
58.332741 -55.565895 -489.558838 38 32 19
58.132740 -55.565895 -489.558838 40 35 20
57.932739 -55.565895 -489.558838 46 42 23
19.043531 -22.450867 -197.801544 143 122 114
18.962725 -22.450867 -197.801544 146 125 117
0.433186 -13.891474 -122.389709 102 81 73
0.383186 -13.891474 -122.389709 86 67 60
0.333186 -13.891474 -122.389709 75 57 50
0.283186 -13.891474 -122.389709 57 41 34
0.233186 -13.891474 -122.389709 39 26 18
-55.667259 -55.565895 -489.558838 146 120 114
35.756744 -21.976707 -192.929596 145 125 114
61.932739 -55.765892 -489.558838 62 41 26
61.732738 -55.765892 -489.558838 68 46 34
61.532738 -55.765892 -489.558838 63 41 29
60.932739 -55.765892 -489.558838 50 31 16
60.732738 -55.765892 -489.558838 49 30 17
60.532738 -55.765892 -489.558838 54 36 25
60.332741 -55.765892 -489.558838 54 36 25
60.132740 -55.765892 -489.558838 59 42 33
59.932739 -55.765892 -489.558838 59 43 36
59.732738 -55.765892 -489.558838 50 36 30
59.532738 -55.765892 -489.558838 31 19 15
59.332741 -55.765892 -489.558838 27 12 10
59.132740 -55.765892 -489.558838 25 10 8
58.932739 -55.765892 -489.558838 27 12 10
58.732738 -55.765892 -489.558838 28 16 12
58.532738 -55.765892 -489.558838 29 17 11
58.332741 -55.765892 -489.558838 38 29 19
58.132740 -55.765892 -489.558838 41 35 22
57.932739 -55.765892 -489.558838 50 46 28
19.043531 -22.531673 -197.801544 140 115 111
18.881916 -22.531673 -197.801544 151 127 121
0.433186 -13.941473 -122.389709 110 88 77
0.383186 -13.941473 -122.389709 101 80 72
0.333186 -13.941473 -122.389709 95 76 68
0.283186 -13.941473 -122.389709 88 69 61
-3.616814 -13.941473 -122.389709 134 113 105
61.932739 -55.965893 -489.558838 59 40 27
61.732738 -55.965893 -489.558838 62 43 30
61.532738 -55.965893 -489.558838 58 39 26
61.332741 -55.965893 -489.558838 53 34 21
61.132740 -55.965893 -489.558838 55 36 21
60.932739 -55.965893 -489.558838 49 30 17
60.732738 -55.965893 -489.558838 42 25 12
60.532738 -55.965893 -489.558838 43 25 14
60.332741 -55.965893 -489.558838 52 36 24
60.132740 -55.965893 -489.558838 62 45 36
59.932739 -55.965893 -489.558838 60 44 37
59.732738 -55.965893 -489.558838 45 33 27
59.532738 -55.965893 -489.558838 31 19 13
59.332741 -55.965893 -489.558838 27 15 11
59.132740 -55.965893 -489.558838 27 12 10
58.932739 -55.965893 -489.558838 29 14 12
58.732738 -55.965893 -489.558838 30 18 14
58.532738 -55.965893 -489.558838 29 17 11
58.332741 -55.965893 -489.558838 37 28 19
19.043531 -22.612482 -197.801544 142 117 113
18.881916 -22.612482 -197.801544 147 120 116
18.801107 -22.612482 -197.801544 148 124 118
0.433186 -13.991473 -122.389709 112 92 81
0.383186 -13.991473 -122.389709 105 84 76
0.333186 -13.991473 -122.389709 103 82 74
-3.516814 -13.991473 -122.389709 105 86 79
-3.566814 -13.991473 -122.389709 127 108 100
-3.616814 -13.991473 -122.389709 135 115 104
-3.666814 -13.991473 -122.389709 139 117 106
36.636276 -22.579254 -196.807571 144 125 110
36.555874 -22.579254 -196.807571 148 126 114
36.475471 -22.579254 -196.807571 151 129 117
61.932739 -56.165894 -489.558838 55 37 26
61.132740 -56.165894 -489.558838 51 35 22
60.932739 -56.165894 -489.558838 48 32 20
60.732738 -56.165894 -489.558838 41 27 15
60.532738 -56.165894 -489.558838 34 20 8
60.332741 -56.165894 -489.558838 42 30 20
60.132740 -56.165894 -489.558838 47 34 26
59.932739 -56.165894 -489.558838 41 30 22
59.532738 -56.165894 -489.558838 25 15 8
59.332741 -56.165894 -489.558838 24 13 9
59.132740 -56.165894 -489.558838 25 13 9
58.932739 -56.165894 -489.558838 28 15 13
58.732738 -56.165894 -489.558838 31 19 15
58.532738 -56.165894 -489.558838 31 19 13
19.124340 -22.693291 -197.801544 145 121 115
19.043531 -22.693291 -197.801544 143 119 113
18.962725 -22.693291 -197.801544 139 112 108
18.881916 -22.693291 -197.801544 146 119 115
18.801107 -22.693291 -197.801544 147 123 117
0.433186 -14.041473 -122.389709 107 88 80
0.383186 -14.041473 -122.389709 103 85 78
0.333186 -14.041473 -122.389709 103 85 78
-3.466815 -14.041473 -122.389709 35 21 15
-3.516814 -14.041473 -122.389709 62 44 37
-3.616814 -14.041473 -122.389709 136 116 105
36.636276 -22.659657 -196.807571 147 128 113
36.555874 -22.659657 -196.807571 148 126 114
36.475471 -22.659657 -196.807571 149 127 115
36.395073 -22.659657 -196.807571 149 127 115
60.732738 -56.365894 -489.558838 36 24 14
60.532738 -56.365894 -489.558838 24 14 4
60.132740 -56.365894 -489.558838 31 22 13
59.532738 -56.365894 -489.558838 20 12 5
59.332741 -56.365894 -489.558838 21 12 8
59.132740 -56.365894 -489.558838 23 12 8
58.932739 -56.365894 -489.558838 25 13 11
58.732738 -56.365894 -489.558838 28 17 13
58.532738 -56.365894 -489.558838 30 20 13
58.332741 -56.365894 -489.558838 36 27 17
0.433186 -14.091474 -122.389709 87 71 64
0.383186 -14.091474 -122.389709 88 72 65
0.333186 -14.091474 -122.389709 88 75 67
-3.466815 -14.091474 -122.389709 32 20 14
-3.516814 -14.091474 -122.389709 40 24 17
-3.616814 -14.091474 -122.389709 123 105 94
60.532738 -56.565895 -489.558838 22 15 6
59.532738 -56.565895 -489.558838 20 14 7
59.332741 -56.565895 -489.558838 21 15 10
59.132740 -56.565895 -489.558838 22 13 9
58.932739 -56.565895 -489.558838 21 12 8
58.732738 -56.565895 -489.558838 23 14 10
58.532738 -56.565895 -489.558838 27 19 12
58.332741 -56.565895 -489.558838 34 28 17
0.433186 -14.141474 -122.389709 45 35 28
0.383186 -14.141474 -122.389709 47 37 30
0.333186 -14.141474 -122.389709 48 38 31
-3.466815 -14.141474 -122.389709 33 23 16
-3.516814 -14.141474 -122.389709 38 27 19
60.932739 -56.765892 -489.558838 26 17 7
60.732738 -56.765892 -489.558838 24 17 8
60.532738 -56.765892 -489.558838 24 18 11
60.332741 -56.765892 -489.558838 20 17 9
60.132740 -56.765892 -489.558838 24 20 15
59.532738 -56.765892 -489.558838 19 16 8
59.332741 -56.765892 -489.558838 21 15 10
59.132740 -56.765892 -489.558838 20 14 9
58.932739 -56.765892 -489.558838 21 12 8
58.732738 -56.765892 -489.558838 21 12 8
58.532738 -56.765892 -489.558838 27 19 12
58.332741 -56.765892 -489.558838 34 27 18
58.132740 -56.765892 -489.558838 33 27 14
57.932739 -56.765892 -489.558838 35 30 15
49.854557 -49.361645 -425.703339 51 42 29
49.680641 -49.361645 -425.703339 48 36 24
-3.466815 -14.191473 -122.389709 28 20 13
-3.516814 -14.191473 -122.389709 31 22 13
60.932739 -56.965893 -489.558838 21 16 7
60.732738 -56.965893 -489.558838 19 17 7
60.532738 -56.965893 -489.558838 21 18 10
60.332741 -56.965893 -489.558838 21 19 11
60.132740 -56.965893 -489.558838 24 21 16
59.932739 -56.965893 -489.558838 22 19 14
59.532738 -56.965893 -489.558838 19 16 11
59.332741 -56.965893 -489.558838 18 13 10
59.132740 -56.965893 -489.558838 19 14 11
58.932739 -56.965893 -489.558838 20 13 10
58.732738 -56.965893 -489.558838 18 12 7
58.532738 -56.965893 -489.558838 23 17 10
58.332741 -56.965893 -489.558838 29 24 15
58.132740 -56.965893 -489.558838 27 23 12
57.932739 -56.965893 -489.558838 30 27 13
49.854557 -49.535561 -425.703339 45 36 23
49.680641 -49.535561 -425.703339 46 34 22
49.506729 -49.535561 -425.703339 48 33 24
-3.466815 -14.241473 -122.389709 28 24 19
60.932739 -57.165894 -489.558838 20 18 8
60.732738 -57.165894 -489.558838 28 26 16
60.532738 -57.165894 -489.558838 26 24 16
60.332741 -57.165894 -489.558838 23 21 13
60.132740 -57.165894 -489.558838 18 17 13
59.332741 -57.165894 -489.558838 20 15 12
59.132740 -57.165894 -489.558838 21 16 13
58.932739 -57.165894 -489.558838 20 13 10
58.732738 -57.165894 -489.558838 16 9 6
58.532738 -57.165894 -489.558838 19 13 8
49.680641 -49.709473 -425.703339 44 34 24
49.506729 -49.709473 -425.703339 46 34 24
13.322346 -18.515268 -158.561569 148 128 117
14.166371 -28.582947 -244.779419 155 132 124
14.066371 -28.582947 -244.779419 154 130 124
-2.166814 -14.291473 -122.389709 22 13 10
-2.216815 -14.291473 -122.389709 25 16 13
-2.266814 -14.291473 -122.389709 24 15 12
-2.316814 -14.291473 -122.389709 22 15 12
-2.366814 -14.291473 -122.389709 25 18 15
60.932739 -57.365894 -489.558838 25 23 13
60.732738 -57.365894 -489.558838 39 37 27
60.532738 -57.365894 -489.558838 47 45 37
60.332741 -57.365894 -489.558838 26 24 16
60.132740 -57.365894 -489.558838 21 20 16
59.332741 -57.365894 -489.558838 24 19 18
59.132740 -57.365894 -489.558838 18 13 12
58.932739 -57.365894 -489.558838 22 17 16
58.732738 -57.365894 -489.558838 20 15 12
58.532738 -57.365894 -489.558838 22 17 14
13.387123 -18.580046 -158.561569 148 130 119
13.322346 -18.580046 -158.561569 148 130 119
13.257568 -18.580046 -158.561569 150 130 119
13.192791 -18.580046 -158.561569 154 132 121
14.266371 -28.682947 -244.779419 155 132 124
14.166371 -28.682947 -244.779419 159 136 128
14.066371 -28.682947 -244.779419 154 130 124
9.908523 -24.154060 -206.130035 153 133 122
-2.116814 -14.341474 -122.389709 22 15 12
-2.166814 -14.341474 -122.389709 19 12 9
-2.216815 -14.341474 -122.389709 23 16 13
-2.266814 -14.341474 -122.389709 24 17 14
-2.316814 -14.341474 -122.389709 24 19 16
-2.366814 -14.341474 -122.389709 23 18 17
60.932739 -57.565895 -489.558838 30 25 16
58.932739 -57.565895 -489.558838 22 17 16
58.732738 -57.565895 -489.558838 20 15 14
13.387123 -18.644823 -158.561569 149 131 120
13.376502 -18.720615 -159.206131 146 128 117
13.257568 -18.644823 -158.561569 152 132 121
13.192791 -18.644823 -158.561569 154 134 123
14.166371 -28.782948 -244.779419 159 136 128
14.066371 -28.782948 -244.779419 157 133 127
9.992734 -24.238272 -206.130035 152 132 121
9.908523 -24.238272 -206.130035 150 130 119
9.824312 -24.238272 -206.130035 152 133 125
-2.166814 -14.391474 -122.389709 20 15 12
-2.266814 -14.391474 -122.389709 21 16 13
-2.316814 -14.391474 -122.389709 21 18 14
58.732738 -57.765892 -489.558838 21 16 15
13.441543 -18.785656 -159.206131 150 132 121
13.376502 -18.785656 -159.206131 144 126 115
13.311460 -18.785656 -159.206131 150 130 119
13.246420 -18.785656 -159.206131 151 131 120
14.166371 -28.882946 -244.779419 155 132 124
9.992734 -24.322481 -206.130035 153 135 124
9.824312 -24.322481 -206.130035 150 132 121
9.740102 -24.322481 -206.130035 149 131 120
13.376502 -18.850697 -159.206131 148 130 119
13.311460 -18.850697 -159.206131 152 132 121
13.246420 -18.850697 -159.206131 152 132 121
9.824312 -24.406693 -206.130035 152 134 123
9.740102 -24.406693 -206.130035 153 135 124
-43.485119 -26.348133 -222.526749 153 134 119
13.376502 -18.915737 -159.206131 151 133 122
13.311460 -18.915737 -159.206131 153 133 122
13.246420 -18.915737 -159.206131 153 133 122
-43.303299 -26.439043 -222.526749 153 134 119
-43.485119 -26.439043 -222.526749 154 135 122
-43.576027 -26.439043 -222.526749 151 134 121
-43.212391 -26.529951 -222.526749 153 134 119
-43.303299 -26.529951 -222.526749 151 132 117
-43.394211 -26.529951 -222.526749 152 133 120
-43.485119 -26.529951 -222.526749 155 136 123
-43.576027 -26.529951 -222.526749 153 136 123
-43.212391 -26.620861 -222.526749 153 134 119
-43.303299 -26.620861 -222.526749 151 132 117
10.305257 -18.730165 -156.034683 153 134 121
-79.467262 -58.765892 -489.558838 158 138 127
10.305257 -18.793911 -156.034683 157 135 123
10.241511 -18.793911 -156.034683 155 133 121
10.177767 -18.793911 -156.034683 153 131 119
-79.067261 -58.965893 -489.558838 150 131 123
-79.267258 -58.965893 -489.558838 153 134 126
-79.467262 -58.965893 -489.558838 154 135 127
-79.667259 -58.965893 -489.558838 154 135 127
-79.867264 -58.965893 -489.558838 154 134 123
10.241511 -18.857655 -156.034683 152 130 118
10.177767 -18.857655 -156.034683 154 132 120
-79.067261 -59.165894 -489.558838 152 133 125
-79.267258 -59.165894 -489.558838 149 130 122
-79.467262 -59.165894 -489.558838 146 127 119
-79.667259 -59.165894 -489.558838 147 128 120
-80.067261 -59.165894 -489.558838 152 132 121
10.241511 -18.921400 -156.034683 156 134 122
10.177767 -18.921400 -156.034683 158 136 124
-79.067261 -59.365894 -489.558838 155 137 126
-79.267258 -59.365894 -489.558838 152 134 123
-79.467262 -59.365894 -489.558838 148 130 119
-79.667259 -59.365894 -489.558838 150 132 121
-80.067261 -59.365894 -489.558838 155 135 124
7.133185 -14.891474 -122.389709 156 134 122
7.083186 -14.891474 -122.389709 152 130 118
-79.067261 -59.565895 -489.558838 152 134 123
-79.267258 -59.565895 -489.558838 149 131 120
-79.467262 -59.565895 -489.558838 150 132 121
-79.667259 -59.565895 -489.558838 153 135 124
-79.867264 -59.565895 -489.558838 156 136 125
-80.067261 -59.565895 -489.558838 156 136 125
7.133185 -14.941473 -122.389709 157 136 121
7.083186 -14.941473 -122.389709 156 135 120
7.033185 -14.941473 -122.389709 156 135 120
6.983186 -14.941473 -122.389709 152 131 116
-79.467262 -59.765892 -489.558838 149 131 120
-79.667259 -59.765892 -489.558838 152 134 123
-79.867264 -59.765892 -489.558838 154 135 122
-80.067261 -59.765892 -489.558838 154 135 122
7.133185 -14.991473 -122.389709 154 133 118
7.083186 -14.991473 -122.389709 160 139 124
-79.467262 -59.965893 -489.558838 152 134 123
-79.667259 -59.965893 -489.558838 155 137 126
-79.867264 -59.965893 -489.558838 156 137 124
-80.067261 -59.965893 -489.558838 156 137 124
48.132744 -60.165894 -489.558838 152 131 116
7.083186 -15.041473 -122.389709 155 136 123
2.028340 -29.529272 -240.274277 14 14 14
-31.067257 -60.165894 -489.558838 157 137 126
48.332741 -60.365894 -489.558838 152 132 115
48.132744 -60.365894 -489.558838 155 134 119
47.932743 -60.365894 -489.558838 156 135 120
13.769911 -20.815825 -168.813385 153 132 124
13.700946 -20.815825 -168.813385 156 134 123
13.573474 -20.726486 -168.088867 159 137 126
13.504805 -20.726486 -168.088867 155 135 124
2.028340 -29.627432 -240.274277 13 13 13
-31.067257 -60.365894 -489.558838 155 135 124
84.332741 -60.565895 -489.558838 147 128 120
84.132736 -60.565895 -489.558838 148 129 121
83.932739 -60.565895 -489.558838 151 132 124
83.732742 -60.565895 -489.558838 151 130 122
48.332741 -60.565895 -489.558838 153 133 116
48.132744 -60.565895 -489.558838 155 134 119
47.932743 -60.565895 -489.558838 154 133 118
13.769911 -20.884790 -168.813385 152 132 121
13.642143 -20.795156 -168.088867 159 137 126
13.573474 -20.795156 -168.088867 159 137 126
13.504805 -20.795156 -168.088867 155 135 124
2.420978 -29.725592 -240.274277 16 14 14
2.322818 -29.725592 -240.274277 19 17 16
2.224659 -29.725592 -240.274277 17 15 15
2.126499 -29.725592 -240.274277 12 10 10
2.028340 -29.725592 -240.274277 16 14 14
-30.467258 -60.565895 -489.558838 156 134 123
-30.667257 -60.565895 -489.558838 159 137 126
-30.867258 -60.565895 -489.558838 159 137 126
-31.067257 -60.565895 -489.558838 155 133 122
84.332741 -60.765892 -489.558838 148 129 121
84.132736 -60.765892 -489.558838 146 127 119
83.932739 -60.765892 -489.558838 147 128 120
83.732742 -60.765892 -489.558838 149 128 120
48.332741 -60.765892 -489.558838 155 135 118
48.132744 -60.765892 -489.558838 154 133 118
47.932743 -60.765892 -489.558838 152 131 116
13.838877 -20.953756 -168.813385 148 128 117
13.769911 -20.953756 -168.813385 151 131 120
13.642143 -20.863827 -168.088867 157 135 124
13.573474 -20.863827 -168.088867 158 136 125
13.504805 -20.863827 -168.088867 155 135 124
2.224659 -29.823751 -240.274277 35 27 27
2.126499 -29.823751 -240.274277 33 25 25
-30.467258 -60.765892 -489.558838 157 135 124
-30.667257 -60.765892 -489.558838 159 137 126
-31.067257 -60.765892 -489.558838 152 130 119
-31.267258 -60.765892 -489.558838 157 135 124
-41.149082 -37.394398 -301.266968 157 138 125
-41.272160 -37.394398 -301.266968 158 139 126
84.132736 -60.965893 -489.558838 144 125 117
83.932739 -60.965893 -489.558838 143 124 116
83.732742 -60.965893 -489.558838 146 128 117
13.133184 -15.241473 -122.389709 20 21 17
48.332741 -60.965893 -489.558838 153 132 117
48.132744 -60.965893 -489.558838 152 130 118
47.932743 -60.965893 -489.558838 150 128 116
