ply
format ascii 1.0
element vertex 1239
property float x
property float y
property float z
property uchar red
property uchar green
property uchar blue
end_header
-0.220213 -0.671559 -22.246260 18 22 23
-0.232118 -0.671559 -22.246260 18 22 23
-0.244023 -0.671559 -22.246260 15 19 20
-0.255928 -0.671559 -22.246260 5 10 9
-0.267832 -0.671559 -22.246260 6 8 8
-0.279737 -0.671559 -22.246260 3 2 4
-0.291642 -0.671559 -22.246260 2 1 3
-0.303547 -0.671559 -22.246260 3 2 4
-0.315451 -0.671559 -22.246260 3 2 4
-0.327356 -0.671559 -22.246260 3 2 4
-0.339261 -0.671559 -22.246260 2 1 3
-0.351166 -0.671559 -22.246260 1 3 4
-2.065297 -0.951081 -31.505766 0 2 2
-2.084353 -0.952084 -31.539001 0 1 1
-2.101231 -0.952084 -31.539001 0 1 1
-2.118109 -0.952084 -31.539001 0 2 2
-2.137241 -0.953089 -31.572306 1 3 3
-2.154136 -0.953089 -31.572306 2 2 2
-2.166456 -0.951081 -31.505766 4 4 4
-2.183316 -0.951081 -31.505766 2 2 2
-2.197860 -0.950080 -31.472603 3 3 3
-2.214702 -0.950080 -31.472603 6 6 6
-2.231544 -0.950080 -31.472603 13 13 13
-2.250755 -0.951081 -31.505766 21 21 21
-30.499584 -11.282194 -373.737152 0 2 2
-2.470213 -0.671559 -22.246260 17 18 14
-2.482118 -0.671559 -22.246260 12 16 11
-2.494023 -0.671559 -22.246260 12 13 9
3.898333 -0.778454 -25.338112 51 10 8
3.867937 -0.777795 -25.316658 48 10 8
3.840859 -0.794616 -25.864162 52 13 11
3.827018 -0.794616 -25.864162 52 13 11
3.813178 -0.794616 -25.864162 54 15 13
3.799337 -0.794616 -25.864162 53 14 12
2.683041 -0.804357 -26.181236 157 13 18
2.669031 -0.804357 -26.181236 157 11 16
2.641010 -0.804357 -26.181236 160 13 17
2.622173 -0.807184 -26.273262 163 14 18
2.608114 -0.807184 -26.273262 163 14 18
2.545165 -0.805062 -26.204184 179 33 37
2.531142 -0.805062 -26.204184 189 46 48
2.519327 -0.805768 -26.227169 193 51 50
2.507492 -0.806475 -26.250195 189 45 44
2.493444 -0.806475 -26.250195 183 37 37
2.125253 -0.821624 -26.743267 190 29 31
2.110942 -0.821624 -26.743267 192 31 33
2.096631 -0.821624 -26.743267 190 31 33
2.037563 -0.820890 -26.719368 192 42 42
2.025074 -0.821624 -26.743267 194 48 48
2.010763 -0.821624 -26.743267 192 48 47
1.994668 -0.820890 -26.719368 188 48 47
1.980369 -0.820890 -26.719368 183 43 42
1.966071 -0.820890 -26.719368 158 24 24
1.951772 -0.820890 -26.719368 126 3 5
1.937474 -0.820890 -26.719368 98 5 6
2.198966 -0.982434 -31.977510 2 7 6
2.181854 -0.982434 -31.977510 3 8 6
2.167059 -0.983486 -32.011749 17 15 14
2.149929 -0.983486 -32.011749 14 12 11
2.132798 -0.983486 -32.011749 4 5 3
2.117935 -0.984540 -32.046059 5 8 6
2.105299 -0.986655 -32.114902 7 9 9
2.083637 -0.984540 -32.046059 3 5 5
1.490561 -0.966922 -31.472603 1 3 3
1.473719 -0.966922 -31.472603 1 3 3
0.468688 -0.944065 -30.728645 3 1 1
0.452244 -0.944065 -30.728645 3 1 1
0.435800 -0.944065 -30.728645 2 0 0
0.419356 -0.944065 -30.728645 7 5 5
0.402912 -0.944065 -30.728645 13 11 11
0.386468 -0.944065 -30.728645 16 14 14
-0.124975 -0.683464 -22.246260 14 18 19
-0.136880 -0.683464 -22.246260 15 19 20
-0.148785 -0.683464 -22.246260 31 35 36
-0.160690 -0.683464 -22.246260 15 19 20
-0.184499 -0.683464 -22.246260 23 27 28
-0.196404 -0.683464 -22.246260 24 28 29
-0.208309 -0.683464 -22.246260 15 19 20
-0.220213 -0.683464 -22.246260 18 22 23
-0.232118 -0.683464 -22.246260 22 26 27
-0.244023 -0.683464 -22.246260 11 15 16
-0.255928 -0.683464 -22.246260 8 13 12
-0.267832 -0.683464 -22.246260 3 5 5
-0.279737 -0.683464 -22.246260 2 1 3
-0.291642 -0.683464 -22.246260 2 1 3
-0.303547 -0.683464 -22.246260 3 2 4
-0.315451 -0.683464 -22.246260 3 2 4
-0.327356 -0.683464 -22.246260 3 2 4
-0.339261 -0.683464 -22.246260 3 2 4
-0.827356 -0.683464 -22.246260 2 4 4
-0.839261 -0.683464 -22.246260 2 4 4
-0.851166 -0.683464 -22.246260 4 6 6
-0.874975 -0.683464 -22.246260 5 5 5
-0.886880 -0.683464 -22.246260 4 4 4
-2.046674 -0.975133 -31.739885 3 5 5
-2.065297 -0.967940 -31.505766 0 2 2
-2.084353 -0.968961 -31.539001 0 1 1
-2.101231 -0.968961 -31.539001 0 2 2
-2.118109 -0.968961 -31.539001 2 4 4
-2.137241 -0.969985 -31.572306 3 5 5
-2.154136 -0.969985 -31.572306 4 4 4
-2.166456 -0.967940 -31.505766 1 1 1
-2.183316 -0.967940 -31.505766 5 5 5
-2.200176 -0.967940 -31.505766 3 3 3
-2.214702 -0.966922 -31.472603 1 1 1
-2.233896 -0.967940 -31.505766 15 15 15
-2.250755 -0.967940 -31.505766 20 20 20
-30.299585 -11.482194 -373.737152 1 3 3
-30.499584 -11.482194 -373.737152 2 4 4
-30.699585 -11.482194 -373.737152 3 5 5
-30.899586 -11.482194 -373.737152 3 5 5
-2.470213 -0.683464 -22.246260 12 16 11
-2.482118 -0.683464 -22.246260 10 14 9
-2.494023 -0.683464 -22.246260 8 12 7
3.850853 -0.810560 -25.931459 51 13 11
3.836976 -0.810560 -25.931459 50 12 10
3.826418 -0.811263 -25.953970 53 15 13
3.812529 -0.811263 -25.953970 53 13 14
2.669031 -0.818367 -26.181236 160 14 19
2.641010 -0.818367 -26.181236 162 15 19
2.636233 -0.821244 -26.273262 162 15 19
2.622173 -0.821244 -26.273262 164 15 19
2.608114 -0.821244 -26.273262 162 13 17
2.554710 -0.817651 -26.158331 169 21 27
2.542936 -0.818367 -26.181236 178 32 36
2.531142 -0.819085 -26.204184 187 44 46
2.517119 -0.819085 -26.204184 192 49 51
2.507492 -0.820523 -26.250195 187 43 42
2.125253 -0.835935 -26.743267 195 34 36
2.110942 -0.835935 -26.743267 194 33 35
2.096631 -0.835935 -26.743267 191 32 34
2.082319 -0.835935 -26.743267 194 38 39
2.037563 -0.835188 -26.719368 191 43 43
2.025074 -0.835935 -26.743267 193 49 48
2.010763 -0.835935 -26.743267 191 48 50
1.994668 -0.835188 -26.719368 190 50 51
1.980369 -0.835188 -26.719368 182 44 45
1.966071 -0.835188 -26.719368 152 24 25
1.951772 -0.835188 -26.719368 117 4 7
1.937474 -0.835188 -26.719368 85 5 6
1.923175 -0.835188 -26.719368 38 3 0
2.218451 -1.000616 -32.011749 6 8 8
2.201320 -1.000616 -32.011749 1 6 5
2.181854 -0.999546 -31.977510 3 5 5
2.167059 -1.000616 -32.011749 14 12 11
2.149929 -1.000616 -32.011749 12 10 9
2.132798 -1.000616 -32.011749 4 4 4
2.117935 -1.001689 -32.046059 7 7 7
2.105299 -1.003840 -32.114902 6 8 9
2.083637 -1.001689 -32.046059 2 4 5
0.519087 -0.962488 -30.791939 3 3 3
0.502609 -0.962488 -30.791939 5 5 5
0.485132 -0.960509 -30.728645 1 1 1
0.468688 -0.960509 -30.728645 1 1 1
0.435800 -0.960509 -30.728645 1 1 1
0.419356 -0.960509 -30.728645 3 3 3
0.386468 -0.960509 -30.728645 12 10 10
0.353580 -0.960509 -30.728645 24 22 22
-0.113071 -0.695369 -22.246260 18 22 23
-0.124975 -0.695369 -22.246260 21 25 26
-0.136880 -0.695369 -22.246260 29 33 34
-0.148785 -0.695369 -22.246260 17 21 22
-0.160690 -0.695369 -22.246260 20 24 25
-0.184499 -0.695369 -22.246260 22 26 27
-0.196404 -0.695369 -22.246260 21 25 26
-0.208309 -0.695369 -22.246260 21 25 26
-0.220213 -0.695369 -22.246260 23 27 28
-0.232118 -0.695369 -22.246260 14 18 19
-0.291642 -0.695369 -22.246260 5 2 4
-0.303547 -0.695369 -22.246260 3 2 4
-0.315451 -0.695369 -22.246260 2 1 3
-0.327356 -0.695369 -22.246260 1 3 4
-0.815452 -0.695369 -22.246260 2 4 4
-0.827356 -0.695369 -22.246260 2 4 4
-0.839261 -0.695369 -22.246260 2 4 4
-0.851166 -0.695369 -22.246260 4 6 7
-0.863071 -0.695369 -22.246260 3 5 6
-0.874975 -0.695369 -22.246260 4 4 4
-0.886880 -0.695369 -22.246260 3 3 3
-2.029689 -0.992118 -31.739885 1 3 3
-2.046674 -0.992118 -31.739885 2 4 4
-2.067476 -0.985839 -31.539001 3 5 5
-2.084353 -0.985839 -31.539001 3 5 5
-2.101231 -0.985839 -31.539001 3 5 5
-2.120345 -0.986880 -31.572306 4 4 4
-2.137241 -0.986880 -31.572306 3 3 3
-2.154136 -0.986880 -31.572306 4 4 4
-2.168741 -0.985839 -31.539001 1 1 1
-2.185619 -0.985839 -31.539001 7 7 7
-2.202497 -0.985839 -31.539001 3 3 3
-2.217036 -0.984800 -31.505766 4 4 4
-2.233896 -0.984800 -31.505766 18 18 18
-30.299585 -11.682194 -373.737152 3 5 5
-30.499584 -11.682194 -373.737152 2 4 4
-30.699585 -11.682194 -373.737152 2 4 4
-30.899586 -11.682194 -373.737152 2 4 4
-31.099585 -11.682194 -373.737152 1 3 3
-2.446404 -0.695369 -22.246260 12 15 13
-2.458309 -0.695369 -22.246260 13 16 14
-2.470213 -0.695369 -22.246260 13 16 14
-2.482118 -0.695369 -22.246260 11 16 14
-2.494023 -0.695369 -22.246260 9 14 12
3.836976 -0.824437 -25.931459 49 11 9
3.826418 -0.825152 -25.953970 52 14 12
2.641010 -0.832378 -26.181236 164 17 21
2.633919 -0.834570 -26.250195 164 17 21
2.619871 -0.834570 -26.250195 166 17 21
2.605824 -0.834570 -26.250195 163 14 18
2.568708 -0.831650 -26.158331 169 21 27
2.554710 -0.831650 -26.158331 173 27 32
2.542936 -0.832378 -26.181236 179 36 39
2.531142 -0.833107 -26.204184 188 48 49
2.517119 -0.833107 -26.204184 192 52 51
2.507492 -0.834570 -26.250195 187 45 44
2.115791 -0.846461 -26.624197 195 34 36
2.087296 -0.846461 -26.624197 191 32 34
2.056969 -0.845708 -26.600510 189 36 37
2.042734 -0.845708 -26.600510 192 42 42
2.025074 -0.850246 -26.743267 192 48 47
2.010763 -0.850246 -26.743267 189 49 50
1.994668 -0.849487 -26.719368 191 53 54
1.980369 -0.849487 -26.719368 180 44 45
1.966071 -0.849487 -26.719368 144 20 20
1.951772 -0.849487 -26.719368 108 7 9
1.937474 -0.849487 -26.719368 75 5 6
1.923175 -0.849487 -26.719368 32 2 1
2.201320 -1.017747 -32.011749 1 3 3
2.181854 -1.016658 -31.977510 2 4 4
2.167059 -1.017747 -32.011749 11 9 8
2.149929 -1.017747 -32.011749 9 7 6
0.535565 -0.978966 -30.791939 0 0 0
0.519087 -0.978966 -30.791939 4 4 4
0.502609 -0.978966 -30.791939 4 4 4
0.485132 -0.976953 -30.728645 1 1 1
0.467726 -0.974949 -30.665613 2 2 2
0.451316 -0.974949 -30.665613 4 4 4
0.419356 -0.976953 -30.728645 2 2 2
0.402912 -0.976953 -30.728645 4 2 2
0.386071 -0.975950 -30.697098 7 5 5
0.370024 -0.976953 -30.728645 8 6 6
0.353580 -0.976953 -30.728645 17 15 15
0.302692 -0.971959 -30.571547 7 8 6
-0.113071 -0.707273 -22.246260 16 20 21
-0.124975 -0.707273 -22.246260 21 25 26
-0.136880 -0.707273 -22.246260 17 21 22
-0.148785 -0.707273 -22.246260 27 31 32
-0.160690 -0.707273 -22.246260 17 21 22
-0.184499 -0.707273 -22.246260 22 26 27
-0.196404 -0.707273 -22.246260 22 26 27
-0.208309 -0.707273 -22.246260 17 21 22
-0.220213 -0.707273 -22.246260 16 20 21
-0.232118 -0.707273 -22.246260 16 20 21
-0.303547 -0.707273 -22.246260 3 2 4
-0.827356 -0.707273 -22.246260 2 4 4
-0.839261 -0.707273 -22.246260 1 3 3
-0.851166 -0.707273 -22.246260 1 3 4
-0.874975 -0.707273 -22.246260 3 3 3
-0.886880 -0.707273 -22.246260 3 3 3
-2.050598 -1.002717 -31.539001 4 6 6
-2.067476 -1.002717 -31.539001 4 6 6
-2.084353 -1.002717 -31.539001 4 6 6
-2.101231 -1.002717 -31.539001 4 6 6
-2.120345 -1.003776 -31.572306 4 4 4
-2.137241 -1.003776 -31.572306 3 3 3
-2.154136 -1.003776 -31.572306 3 3 3
-2.171031 -1.003776 -31.572306 4 4 4
-2.204822 -1.003776 -31.572306 6 6 6
-2.221718 -1.003776 -31.572306 16 16 16
-2.238613 -1.003776 -31.572306 17 17 17
-30.299585 -11.882194 -373.737152 3 5 5
-30.699585 -11.882194 -373.737152 1 3 3
-30.899586 -11.882194 -373.737152 2 4 4
-31.099585 -11.882194 -373.737152 1 3 3
-2.470213 -0.707273 -22.246260 8 13 11
-2.482118 -0.707273 -22.246260 10 15 13
-2.494023 -0.707273 -22.246260 10 15 13
-2.505928 -0.707273 -22.246260 8 13 11
-2.541642 -0.707273 -22.246260 8 13 11
-2.553547 -0.707273 -22.246260 7 12 10
2.641010 -0.846388 -26.181236 163 15 21
2.633919 -0.848618 -26.250195 164 16 22
2.619871 -0.848618 -26.250195 164 17 21
2.605824 -0.848618 -26.250195 163 16 20
2.568708 -0.845648 -26.158331 169 21 27
2.554710 -0.845648 -26.158331 174 28 33
2.542936 -0.846388 -26.181236 182 39 42
2.531142 -0.847130 -26.204184 190 50 51
2.517119 -0.847130 -26.204184 192 52 51
2.130038 -0.860708 -26.624197 192 33 35
2.115791 -0.860708 -26.624197 193 34 36
2.101543 -0.860708 -26.624197 193 34 36
2.087296 -0.860708 -26.624197 192 36 37
2.056969 -0.859943 -26.600510 188 38 38
2.037563 -0.863785 -26.719368 192 47 49
2.025074 -0.864558 -26.743267 190 47 49
2.010763 -0.864558 -26.743267 188 49 52
1.994668 -0.863785 -26.719368 188 53 55
1.980369 -0.863785 -26.719368 174 41 43
1.966071 -0.863785 -26.719368 137 18 19
1.951772 -0.863785 -26.719368 100 9 12
1.937474 -0.863785 -26.719368 62 5 4
1.923175 -0.863785 -26.719368 24 1 0
2.198966 -1.033771 -31.977510 1 3 3
2.181854 -1.033771 -31.977510 2 4 4
2.167059 -1.034877 -32.011749 9 10 8
2.149929 -1.034877 -32.011749 7 8 6
0.502609 -0.995443 -30.791939 2 2 2
0.485132 -0.993397 -30.728645 1 1 1
0.467726 -0.991359 -30.665613 2 1 3
0.451316 -0.991359 -30.665613 2 1 3
0.434906 -0.991359 -30.665613 2 1 3
0.418925 -0.992377 -30.697098 2 1 3
0.402498 -0.992377 -30.697098 3 3 3
0.386071 -0.992377 -30.697098 0 0 0
0.369644 -0.992377 -30.697098 6 6 6
0.353217 -0.992377 -30.697098 8 8 8
0.336444 -0.991359 -30.665613 16 16 16
0.319052 -0.988319 -30.571547 14 14 14
0.302692 -0.988319 -30.571547 5 5 5
-0.113071 -0.719178 -22.246260 19 21 22
-0.124975 -0.719178 -22.246260 17 19 20
-0.136880 -0.719178 -22.246260 35 37 38
-0.148785 -0.719178 -22.246260 16 18 19
-0.160690 -0.719178 -22.246260 15 17 18
-0.172594 -0.719178 -22.246260 26 28 29
-0.184499 -0.719178 -22.246260 20 22 23
-0.196404 -0.719178 -22.246260 21 23 24
-0.208309 -0.719178 -22.246260 22 24 25
-0.220213 -0.719178 -22.246260 25 27 28
-0.232118 -0.719178 -22.246260 11 13 14
-0.839261 -0.719178 -22.246260 2 4 4
-0.851166 -0.719178 -22.246260 0 2 3
-2.069659 -1.020671 -31.572306 1 3 3
-2.086554 -1.020671 -31.572306 3 3 3
-2.103450 -1.020671 -31.572306 4 4 4
-2.122586 -1.021750 -31.605679 5 5 5
-2.139500 -1.021750 -31.605679 5 5 5
-2.156413 -1.021750 -31.605679 5 3 3
-2.173326 -1.021750 -31.605679 6 4 4
-2.207153 -1.021750 -31.605679 16 14 14
-2.224066 -1.021750 -31.605679 23 23 23
-2.240980 -1.021750 -31.605679 12 12 12
-30.699585 -12.082193 -373.737152 3 5 5
-30.899586 -12.082193 -373.737152 4 6 6
-2.434499 -0.719178 -22.246260 11 14 12
-2.446404 -0.719178 -22.246260 11 14 12
-2.458309 -0.719178 -22.246260 11 14 12
-2.470213 -0.719178 -22.246260 10 13 11
-2.482118 -0.719178 -22.246260 10 13 11
-2.494023 -0.719178 -22.246260 11 14 12
-2.505928 -0.719178 -22.246260 11 14 12
-2.517833 -0.719178 -22.246260 9 12 10
-2.529737 -0.719178 -22.246260 5 10 8
-2.541642 -0.719178 -22.246260 7 10 8
-2.553547 -0.719178 -22.246260 9 12 10
3.972008 -0.860399 -26.181236 42 8 9
3.957998 -0.860399 -26.181236 42 8 9
3.940536 -0.859646 -26.158331 43 9 10
3.926538 -0.859646 -26.158331 45 9 9
3.912540 -0.859646 -26.158331 41 6 3
3.895134 -0.858895 -26.135466 45 10 7
2.641010 -0.860399 -26.181236 162 16 21
2.633919 -0.862665 -26.250195 163 15 21
2.619871 -0.862665 -26.250195 164 17 21
2.603538 -0.861908 -26.227169 163 16 20
2.568708 -0.859646 -26.158331 166 18 24
2.554710 -0.859646 -26.158331 172 26 30
2.542936 -0.860399 -26.181236 181 38 40
2.528926 -0.860399 -26.181236 188 48 47
2.517119 -0.861153 -26.204184 188 48 47
2.037563 -0.878084 -26.719368 188 45 47
2.026887 -0.879656 -26.767210 188 50 51
2.010763 -0.878869 -26.743267 188 52 54
1.994668 -0.878084 -26.719368 184 51 53
1.980369 -0.878084 -26.719368 170 40 41
1.966071 -0.878084 -26.719368 134 22 22
1.951772 -0.878084 -26.719368 90 10 11
1.937474 -0.878084 -26.719368 52 4 3
1.923175 -0.878084 -26.719368 20 0 0
2.198966 -1.050883 -31.977510 2 4 5
2.164741 -1.050883 -31.977510 7 9 9
2.147629 -1.050883 -31.977510 5 8 6
2.130517 -1.050883 -31.977510 5 5 5
2.115667 -1.052008 -32.011749 8 8 8
0.535565 -1.011921 -30.791939 2 2 2
0.519087 -1.011921 -30.791939 3 3 3
0.402498 -1.008804 -30.697098 2 2 2
0.386071 -1.008804 -30.697098 2 2 2
0.369265 -1.007770 -30.665613 3 3 3
0.352855 -1.007770 -30.665613 7 7 7
0.336444 -1.007770 -30.665613 3 3 3
0.319052 -1.004678 -30.571547 15 15 15
0.285748 -1.002628 -30.509155 3 3 3
-0.113071 -0.731083 -22.246260 20 22 23
-0.124975 -0.731083 -22.246260 27 29 30
-0.136880 -0.731083 -22.246260 16 18 19
-0.148785 -0.731083 -22.246260 24 26 27
-0.160690 -0.731083 -22.246260 26 28 29
-0.172594 -0.731083 -22.246260 15 17 18
-0.184499 -0.731083 -22.246260 21 23 24
-0.196404 -0.731083 -22.246260 21 23 24
-0.208309 -0.731083 -22.246260 19 21 22
-0.220213 -0.731083 -22.246260 18 17 19
-0.232118 -0.731083 -22.246260 18 17 19
-0.839261 -0.731083 -22.246260 3 6 4
-2.052763 -1.037567 -31.572306 3 5 5
-2.069659 -1.037567 -31.572306 2 4 4
-2.086554 -1.037567 -31.572306 3 3 3
-2.105673 -1.038663 -31.605679 4 4 4
-2.122586 -1.038663 -31.605679 4 4 4
-2.139500 -1.038663 -31.605679 4 4 4
-2.446404 -0.731083 -22.246260 14 17 15
-2.458309 -0.731083 -22.246260 14 17 15
-2.470213 -0.731083 -22.246260 12 15 13
-2.482118 -0.731083 -22.246260 12 15 13
-2.494023 -0.731083 -22.246260 13 16 14
-2.505928 -0.731083 -22.246260 14 17 15
-2.517833 -0.731083 -22.246260 14 15 13
-2.529737 -0.731083 -22.246260 10 11 9
-2.541642 -0.731083 -22.246260 10 11 9
-2.553547 -0.731083 -22.246260 13 14 12
3.972008 -0.874409 -26.181236 39 7 8
3.957998 -0.874409 -26.181236 42 7 11
3.940536 -0.873644 -26.158331 42 8 9
3.929976 -0.874409 -26.181236 44 10 10
3.915966 -0.874409 -26.181236 41 8 5
3.895134 -0.872881 -26.135466 43 9 9
3.881148 -0.872881 -26.135466 45 11 11
3.863785 -0.872118 -26.112640 49 13 13
3.832490 -0.871357 -26.089853 49 12 14
3.818528 -0.871357 -26.089853 51 14 16
2.641010 -0.874409 -26.181236 161 15 20
2.631608 -0.875943 -26.227169 161 15 20
2.617573 -0.875943 -26.227169 164 17 21
2.603538 -0.875943 -26.227169 163 16 20
2.566463 -0.872881 -26.135466 168 20 26
2.554710 -0.873644 -26.158331 175 29 33
2.542936 -0.874409 -26.181236 184 41 43
2.528926 -0.874409 -26.181236 189 49 48
2.517119 -0.875176 -26.204184 187 48 45
2.477222 -0.875943 -26.227169 177 30 28
2.037563 -0.892382 -26.719368 185 45 46
2.026887 -0.893980 -26.767210 186 50 51
2.010763 -0.893180 -26.743267 190 55 57
1.994668 -0.892382 -26.719368 183 53 54
1.980369 -0.892382 -26.719368 167 38 41
1.966071 -0.892382 -26.719368 129 20 22
1.951772 -0.892382 -26.719368 80 7 9
1.937474 -0.892382 -26.719368 45 4 2
1.923175 -0.892382 -26.719368 19 1 0
2.198966 -1.067995 -31.977510 2 4 5
2.147629 -1.067995 -31.977510 1 6 5
2.130517 -1.067995 -31.977510 5 5 5
2.115667 -1.069139 -32.011749 6 8 8
0.519087 -1.028399 -30.791939 4 4 4
0.402085 -1.024180 -30.665613 1 3 3
0.385675 -1.024180 -30.665613 2 4 4
0.369265 -1.024180 -30.665613 1 3 3
0.319052 -1.021038 -30.571547 1 3 3
0.285748 -1.018955 -30.509155 6 8 8
-0.113071 -0.742988 -22.246260 22 24 25
-0.124975 -0.742988 -22.246260 19 21 22
-0.136880 -0.742988 -22.246260 32 31 33
-0.172594 -0.742988 -22.246260 35 34 36
-0.184499 -0.742988 -22.246260 24 23 25
-0.196404 -0.742988 -22.246260 18 17 19
-0.208309 -0.742988 -22.246260 27 26 28
-0.220213 -0.742988 -22.246260 22 19 21
-0.232118 -0.742988 -22.246260 14 11 13
-0.839261 -0.742988 -22.246260 3 6 4
-2.052763 -1.054462 -31.572306 4 6 6
-2.067476 -1.053350 -31.539001 4 6 6
-2.088760 -1.055577 -31.605679 5 5 5
-2.105673 -1.055577 -31.605679 4 4 4
-2.434499 -0.742988 -22.246260 10 13 11
-2.446404 -0.742988 -22.246260 10 13 11
-2.458309 -0.742988 -22.246260 12 15 13
-2.470213 -0.742988 -22.246260 12 13 11
-2.482118 -0.742988 -22.246260 13 14 12
-2.494023 -0.742988 -22.246260 14 15 13
-2.505928 -0.742988 -22.246260 14 15 13
-2.517833 -0.742988 -22.246260 15 13 12
-2.529737 -0.742988 -22.246260 13 11 10
-2.541642 -0.742988 -22.246260 13 11 10
-2.553547 -0.742988 -22.246260 13 11 10
4.106649 -0.872378 -25.708488 36 25 21
4.099943 -0.873881 -25.752775 39 24 21
4.072630 -0.876902 -25.841808 35 8 4
4.058801 -0.876902 -25.841808 38 7 4
4.044972 -0.876902 -25.841808 43 8 5
4.031144 -0.876902 -25.841808 44 6 4
3.968533 -0.887643 -26.158331 38 6 7
3.954535 -0.887643 -26.158331 37 5 6
3.926538 -0.887643 -26.158331 41 7 7
3.915966 -0.888420 -26.181236 40 7 4
3.895134 -0.886867 -26.135466 44 8 8
3.877758 -0.886092 -26.112640 47 11 11
3.863785 -0.886092 -26.112640 51 15 15
3.849811 -0.886092 -26.112640 52 16 16
3.832490 -0.885319 -26.089853 50 13 15
3.818528 -0.885319 -26.089853 54 18 18
2.666696 -0.887643 -26.158331 158 13 21
2.641010 -0.888420 -26.181236 159 13 18
2.629302 -0.889198 -26.204184 161 15 20
2.617573 -0.889979 -26.227169 164 16 22
2.601256 -0.889198 -26.204184 162 14 20
2.582706 -0.887643 -26.158331 164 14 20
2.566463 -0.886867 -26.135466 166 18 24
2.552477 -0.886867 -26.135466 176 30 34
2.542936 -0.888420 -26.181236 185 45 46
2.528926 -0.888420 -26.181236 188 51 49
2.477222 -0.889979 -26.227169 179 32 30
2.050030 -0.905871 -26.695511 190 46 45
2.039386 -0.907492 -26.743267 185 45 46
2.026887 -0.908304 -26.767210 184 48 49
2.010763 -0.907492 -26.743267 187 54 56
1.992887 -0.905871 -26.695511 182 55 56
1.978601 -0.905871 -26.695511 163 38 40
1.964315 -0.905871 -26.695511 117 15 16
1.950030 -0.905871 -26.695511 67 5 5
1.935744 -0.905871 -26.695511 35 4 3
1.921458 -0.905871 -26.695511 17 4 2
2.237978 -1.087434 -32.046059 3 4 8
2.220829 -1.087434 -32.046059 0 3 7
2.203680 -1.087434 -32.046059 2 4 5
2.186531 -1.087434 -32.046059 4 6 7
2.169382 -1.087434 -32.046059 6 8 8
2.149929 -1.086269 -32.011749 2 4 4
2.132798 -1.086269 -32.011749 3 3 3
2.115667 -1.086269 -32.011749 7 7 7
0.519087 -1.044877 -30.791939 4 4 4
0.385675 -1.040590 -30.665613 1 3 3
0.319052 -1.037398 -30.571547 5 7 7
0.285748 -1.035281 -30.509155 13 15 15
-0.113071 -0.754892 -22.246260 10 9 11
-0.124975 -0.754892 -22.246260 18 17 19
-0.184499 -0.754892 -22.246260 23 22 24
-0.196404 -0.754892 -22.246260 26 25 27
-0.208309 -0.754892 -22.246260 21 18 20
-0.220213 -0.754892 -22.246260 20 17 19
-2.050598 -1.070227 -31.539001 3 5 5
-2.067476 -1.070227 -31.539001 3 5 5
-2.105673 -1.072490 -31.605679 4 4 4
-2.122586 -1.072490 -31.605679 6 4 4
-2.165570 -1.077044 -31.739885 7 5 5
-2.182555 -1.077044 -31.739885 19 17 17
-2.434499 -0.754892 -22.246260 9 12 10
-2.446404 -0.754892 -22.246260 9 12 10
-2.458309 -0.754892 -22.246260 12 15 13
-2.470213 -0.754892 -22.246260 10 11 9
-2.482118 -0.754892 -22.246260 12 13 11
-2.494023 -0.754892 -22.246260 15 13 12
-2.505928 -0.754892 -22.246260 14 12 11
-2.517833 -0.754892 -22.246260 15 13 12
-2.529737 -0.754892 -22.246260 16 15 11
-2.541642 -0.754892 -22.246260 17 13 12
-2.553547 -0.754892 -22.246260 14 10 9
4.106649 -0.886135 -25.708488 28 22 15
4.099943 -0.887662 -25.752775 33 26 17
4.096747 -0.889962 -25.819492 36 24 14
4.097420 -0.896153 -25.999107 34 13 5
4.006998 -0.897714 -26.044401 39 8 9
3.968533 -0.901641 -26.158331 39 8 9
3.954535 -0.901641 -26.158331 40 8 9
3.926538 -0.901641 -26.158331 43 7 7
3.915966 -0.902430 -26.181236 47 11 11
3.863785 -0.900066 -26.112640 51 13 13
3.849811 -0.900066 -26.112640 52 14 14
3.832490 -0.899280 -26.089853 54 16 16
3.818528 -0.899280 -26.089853 55 17 17
2.666696 -0.901641 -26.158331 158 14 19
2.641010 -0.902430 -26.181236 164 18 23
2.629302 -0.903221 -26.204184 160 14 19
2.615279 -0.903221 -26.204184 161 15 20
2.601256 -0.903221 -26.204184 166 18 26
2.582706 -0.901641 -26.158331 170 19 28
2.566463 -0.900853 -26.135466 170 20 26
2.542936 -0.902430 -26.181236 184 44 45
2.528926 -0.902430 -26.181236 185 48 46
2.491257 -0.904014 -26.227169 176 33 30
2.477222 -0.904014 -26.227169 171 25 25
2.101543 -0.917699 -26.624197 196 34 39
2.087296 -0.917699 -26.624197 194 37 41
2.073048 -0.917699 -26.624197 190 40 40
2.050030 -0.920157 -26.695511 189 47 46
2.039386 -0.921803 -26.743267 192 49 51
2.026887 -0.922628 -26.767210 187 49 50
2.010763 -0.921803 -26.743267 179 49 50
1.992887 -0.920157 -26.695511 176 53 55
1.978601 -0.920157 -26.695511 156 39 42
1.964315 -0.920157 -26.695511 102 9 10
1.950030 -0.920157 -26.695511 51 5 4
1.935744 -0.920157 -26.695511 23 4 1
2.299282 -1.109339 -32.184040 9 3 4
2.282059 -1.109339 -32.184040 5 2 4
2.264837 -1.109339 -32.184040 5 4 6
2.223212 -1.105768 -32.080444 0 0 3
2.206044 -1.105768 -32.080444 3 2 4
2.188877 -1.105768 -32.080444 2 1 3
2.171710 -1.105768 -32.080444 7 5 5
2.152233 -1.104582 -32.046059 2 0 0
2.135084 -1.104582 -32.046059 6 4 3
2.117935 -1.104582 -32.046059 5 6 4
2.100786 -1.104582 -32.046059 2 5 3
0.319052 -1.053758 -30.571547 0 2 2
0.302075 -1.051608 -30.509155 4 4 4
0.285748 -1.051608 -30.509155 6 6 6
-2.033720 -1.087105 -31.539001 5 5 5
-2.050598 -1.087105 -31.539001 4 4 4
-2.084353 -1.087105 -31.539001 5 5 5
-2.122586 -1.089403 -31.605679 9 9 9
-2.165570 -1.094029 -31.739885 12 12 12
-2.182555 -1.094029 -31.739885 34 34 34
-2.255284 -1.096357 -31.807417 6 4 3
-2.458309 -0.766797 -22.246260 8 9 5
-2.470213 -0.766797 -22.246260 11 12 8
-2.482118 -0.766797 -22.246260 13 14 10
-2.494023 -0.766797 -22.246260 10 11 7
-2.505928 -0.766797 -22.246260 9 10 6
-2.517833 -0.766797 -22.246260 15 14 10
-2.529737 -0.766797 -22.246260 16 16 10
-2.541642 -0.766797 -22.246260 15 14 10
4.106649 -0.899893 -25.708488 41 36 27
4.099943 -0.901443 -25.752775 43 37 26
4.096747 -0.903778 -25.819492 48 39 26
4.097420 -0.910066 -25.999107 38 22 10
4.083507 -0.910066 -25.999107 30 11 3
4.066058 -0.909275 -25.976519 36 12 6
4.052157 -0.909275 -25.976519 36 10 4
4.034872 -0.911651 -26.044401 36 8 7
4.020935 -0.911651 -26.044401 36 8 8
4.006998 -0.911651 -26.044401 34 8 8
3.968533 -0.915639 -26.158331 38 10 10
3.954535 -0.915639 -26.158331 40 10 9
3.937092 -0.914839 -26.135466 39 8 7
3.926538 -0.915639 -26.158331 47 11 11
3.863785 -0.914040 -26.112640 52 12 13
3.849811 -0.914040 -26.112640 53 13 14
3.832490 -0.913242 -26.089853 54 14 15
2.541691 -0.778702 -22.246260 119 10 12
2.529787 -0.778702 -22.246260 122 9 12
2.517882 -0.778702 -22.246260 125 10 13
2.666696 -0.915639 -26.158331 159 16 19
2.641010 -0.916441 -26.181236 159 13 18
2.629302 -0.917244 -26.204184 161 15 20
2.615279 -0.917244 -26.204184 162 15 23
2.601256 -0.917244 -26.204184 163 15 23
2.582706 -0.915639 -26.158331 169 18 27
2.566463 -0.914839 -26.135466 173 25 31
2.495636 -0.919662 -26.273262 170 26 25
2.481576 -0.919662 -26.273262 174 28 30
2.467516 -0.919662 -26.273262 170 21 24
2.112030 -0.930289 -26.576864 192 30 35
2.097807 -0.930289 -26.576864 194 32 37
2.083585 -0.930289 -26.576864 192 35 39
2.071204 -0.931117 -26.600510 190 37 40
2.053315 -0.929463 -26.553261 191 45 45
2.050030 -0.934442 -26.695511 186 44 43
2.039386 -0.936114 -26.743267 188 45 47
2.026887 -0.936952 -26.767210 188 52 53
2.010763 -0.936114 -26.743267 183 54 57
1.992887 -0.934442 -26.695511 173 54 55
1.978601 -0.934442 -26.695511 146 36 38
1.964315 -0.934442 -26.695511 92 10 9
1.950030 -0.934442 -26.695511 41 6 3
1.935744 -0.934442 -26.695511 16 5 1
2.245197 -1.125350 -32.149433 4 5 9
2.227993 -1.125350 -32.149433 2 4 5
2.210788 -1.125350 -32.149433 4 3 5
2.193584 -1.125350 -32.149433 7 5 5
2.154542 -1.122935 -32.080444 8 4 3
2.137375 -1.122935 -32.080444 8 6 5
2.117935 -1.121731 -32.046059 8 9 7
2.100786 -1.121731 -32.046059 6 7 5
-1.327135 -0.807543 -23.070194 1 4 2
-2.050598 -1.103983 -31.539001 4 4 4
-2.067476 -1.103983 -31.539001 5 5 5
-2.084353 -1.103983 -31.539001 7 7 7
-2.150868 -1.112195 -31.773617 6 6 6
-2.167871 -1.112195 -31.773617 24 24 24
-2.184874 -1.112195 -31.773617 25 25 25
-2.238263 -1.113378 -31.807417 7 5 4
-2.255284 -1.113378 -31.807417 5 3 2
-2.410690 -0.778702 -22.246260 22 23 14
-2.458309 -0.778702 -22.246260 15 16 12
-2.470213 -0.778702 -22.246260 21 20 16
-2.482118 -0.778702 -22.246260 19 20 16
-2.494023 -0.778702 -22.246260 20 19 15
-2.505928 -0.778702 -22.246260 19 18 14
-2.517833 -0.778702 -22.246260 20 20 14
-2.529737 -0.778702 -22.246260 19 19 13
4.099943 -0.915224 -25.752775 72 62 52
4.096747 -0.917595 -25.819492 66 57 44
4.097420 -0.923979 -25.999107 62 46 34
4.083507 -0.923979 -25.999107 51 32 24
4.066058 -0.923176 -25.976519 39 17 11
4.052157 -0.923176 -25.976519 33 9 3
4.041768 -0.923979 -25.999107 31 6 4
4.031361 -0.924783 -26.021734 34 9 7
4.017436 -0.924783 -26.021734 34 8 8
4.006998 -0.925588 -26.044401 32 8 8
3.996542 -0.926395 -26.067108 30 6 6
3.982592 -0.926395 -26.067108 30 6 6
3.972008 -0.930451 -26.181236 37 9 9
3.954535 -0.929637 -26.158331 37 9 8
3.937092 -0.928825 -26.135466 38 8 7
3.867162 -0.928825 -26.135466 53 13 14
3.853176 -0.928825 -26.135466 52 12 13
2.541691 -0.790607 -22.246260 121 12 14
2.529787 -0.790607 -22.246260 124 11 14
2.517882 -0.790607 -22.246260 126 11 14
2.669031 -0.930451 -26.181236 160 17 20
2.655020 -0.930451 -26.181236 157 14 17
2.645643 -0.932084 -26.227169 156 12 17
2.633919 -0.932902 -26.250195 160 16 21
2.601256 -0.931267 -26.204184 164 16 22
2.582706 -0.929637 -26.158331 166 16 22
2.566463 -0.928825 -26.135466 171 23 29
2.113909 -0.945352 -26.600510 192 33 37
2.099674 -0.945352 -26.600510 196 34 39
2.085439 -0.945352 -26.600510 193 37 38
2.071204 -0.945352 -26.600510 191 38 39
2.053315 -0.943673 -26.553261 192 46 46
2.050030 -0.948728 -26.695511 187 45 44
2.026887 -0.951276 -26.767210 188 54 54
2.010763 -0.950425 -26.743267 183 58 60
1.994668 -0.949576 -26.719368 168 56 56
1.980369 -0.949576 -26.719368 136 36 36
1.966071 -0.949576 -26.719368 82 10 10
1.950030 -0.948728 -26.695511 32 3 0
1.935744 -0.948728 -26.695511 9 3 0
2.274714 -1.140102 -32.080444 2 4 4
2.245197 -1.142554 -32.149433 0 2 3
2.227993 -1.142554 -32.149433 1 3 4
2.210788 -1.142554 -32.149433 2 1 3
2.193584 -1.142554 -32.149433 7 5 5
2.154542 -1.140102 -32.080444 9 4 5
2.100786 -1.138880 -32.046059 11 11 11
0.267240 -1.075481 -30.262117 3 3 3
-1.327135 -0.819888 -23.070194 3 4 2
-2.155449 -1.131603 -31.841291 13 13 13
-2.172489 -1.131603 -31.841291 28 28 28
-2.189528 -1.131603 -31.841291 14 14 14
-2.194016 -0.811746 -22.841080 49 52 56
-2.199518 -0.809273 -22.771494 60 63 67
-2.410690 -0.790607 -22.246260 41 39 31
-2.458309 -0.790607 -22.246260 35 35 29
-2.470213 -0.790607 -22.246260 39 36 32
-2.482118 -0.790607 -22.246260 36 35 31
-2.494023 -0.790607 -22.246260 39 36 31
-2.505928 -0.790607 -22.246260 41 38 33
4.055681 -0.937892 -25.999107 42 20 14
4.041768 -0.937892 -25.999107 34 12 7
4.031361 -0.938708 -26.021734 35 12 10
4.020935 -0.939526 -26.044401 33 9 9
4.006998 -0.939526 -26.044401 32 8 8
3.996542 -0.940345 -26.067108 31 7 7
3.982592 -0.940345 -26.067108 30 6 6
3.972008 -0.944462 -26.181236 33 7 7
3.957998 -0.944462 -26.181236 35 7 6
3.937092 -0.942811 -26.135466 35 7 6
3.867162 -0.942811 -26.135466 53 13 14
2.553596 -0.802512 -22.246260 119 10 12
2.541691 -0.802512 -22.246260 122 12 14
2.529787 -0.802512 -22.246260 122 12 14
2.517882 -0.802512 -22.246260 123 10 13
2.505977 -0.802512 -22.246260 125 10 13
2.494072 -0.802512 -22.246260 131 11 15
2.669031 -0.944462 -26.181236 156 13 16
2.645643 -0.946119 -26.227169 158 15 18
2.633919 -0.946949 -26.250195 158 15 18
2.619871 -0.946949 -26.250195 162 16 21
2.601256 -0.945290 -26.204184 164 18 23
2.584968 -0.944462 -26.181236 169 21 27
2.117677 -0.961297 -26.647926 193 34 38
2.103416 -0.961297 -26.647926 197 38 42
2.089156 -0.961297 -26.647926 197 41 42
2.071204 -0.959587 -26.600510 193 40 41
2.053315 -0.957882 -26.553261 190 46 45
2.050030 -0.963014 -26.695511 190 50 49
1.992887 -0.963014 -26.695511 165 56 58
1.978601 -0.963014 -26.695511 125 35 35
1.964315 -0.963014 -26.695511 72 11 9
2.274714 -1.157270 -32.080444 2 4 4
2.264837 -1.161007 -32.184040 0 4 3
2.240379 -1.157270 -32.080444 1 3 3
2.220829 -1.156029 -32.046059 1 3 3
2.206044 -1.157270 -32.080444 2 2 2
2.188877 -1.157270 -32.080444 7 5 5
2.171710 -1.157270 -32.080444 14 9 10
2.113405 -1.153557 -31.977510 8 8 8
2.096292 -1.153557 -31.977510 9 11 12
0.267240 -1.091676 -30.262117 2 2 2
-1.327135 -0.832234 -23.070194 3 4 2
-2.174805 -1.149867 -31.875237 17 17 17
-2.191862 -1.149867 -31.875237 9 9 9
-2.194016 -0.823969 -22.841080 45 48 52
-2.199518 -0.821459 -22.771494 58 61 65
-2.374975 -0.802512 -22.246260 49 46 38
-2.410690 -0.802512 -22.246260 44 42 34
-2.446404 -0.802512 -22.246260 43 40 35
-2.458309 -0.802512 -22.246260 44 41 36
-2.470213 -0.802512 -22.246260 43 40 36
4.108137 -0.954294 -26.067108 71 59 47
4.094188 -0.954294 -26.067108 70 56 44
4.080238 -0.954294 -26.067108 67 50 41
4.038390 -0.954294 -26.067108 28 8 3
4.024440 -0.954294 -26.067108 32 11 9
4.010491 -0.954294 -26.067108 31 10 8
3.951078 -0.956797 -26.135466 34 9 7
3.881148 -0.956797 -26.135466 48 12 12
3.867162 -0.956797 -26.135466 51 11 12
2.565501 -0.814416 -22.246260 119 9 11
2.553596 -0.814416 -22.246260 118 8 10
2.541691 -0.814416 -22.246260 119 9 11
2.529787 -0.814416 -22.246260 119 9 11
2.517882 -0.814416 -22.246260 121 8 11
2.505977 -0.814416 -22.246260 125 10 13
2.669031 -0.958472 -26.181236 157 14 17
2.659678 -0.960154 -26.227169 160 17 20
2.645643 -0.960154 -26.227169 161 18 21
2.619871 -0.960997 -26.250195 159 16 19
2.603538 -0.960154 -26.227169 165 19 23
2.584968 -0.958472 -26.181236 170 23 27
2.537132 -0.966939 -26.412519 171 35 36
2.522998 -0.966939 -26.412519 168 28 29
2.506649 -0.966086 -26.389208 176 30 34
2.492527 -0.966086 -26.389208 175 26 30
2.478405 -0.966086 -26.389208 174 22 28
2.462111 -0.965234 -26.365936 175 21 26
2.448001 -0.965234 -26.365936 174 20 25
2.123354 -0.978173 -26.719368 192 35 39
2.109056 -0.978173 -26.719368 194 37 41
2.094757 -0.978173 -26.719368 197 41 42
1.994668 -0.978173 -26.719368 158 56 57
1.980369 -0.978173 -26.719368 108 31 29
1.966071 -0.978173 -26.719368 59 8 6
1.951772 -0.978173 -26.719368 24 4 0
2.274714 -1.174437 -32.080444 2 3 1
2.264837 -1.178230 -32.184040 2 5 3
2.240379 -1.174437 -32.080444 4 5 3
2.220829 -1.173178 -32.046059 2 3 1
2.096292 -1.170669 -31.977510 3 6 10
2.079180 -1.170669 -31.977510 0 2 6
0.267240 -1.107870 -30.262117 3 3 3
-2.174805 -1.166925 -31.875237 7 7 7
-2.191862 -1.166925 -31.875237 8 8 8
-2.194016 -0.836192 -22.841080 38 41 45
-2.199518 -0.833645 -22.771494 52 55 59
-2.363070 -0.814416 -22.246260 42 39 31
-2.374975 -0.814416 -22.246260 44 38 31
4.111722 -0.969088 -26.089853 67 58 45
4.097760 -0.969088 -26.089853 72 60 48
4.080238 -0.968244 -26.067108 74 59 50
4.066289 -0.968244 -26.067108 63 46 37
4.055875 -0.969088 -26.089853 44 24 19
4.041914 -0.969088 -26.089853 33 13 8
4.027952 -0.969088 -26.089853 31 10 8
4.017496 -0.969935 -26.112640 31 10 8
4.003522 -0.969935 -26.112640 31 10 9
3.965064 -0.970783 -26.135466 31 7 7
3.951078 -0.970783 -26.135466 33 8 6
2.553596 -0.826321 -22.246260 119 9 11
2.541691 -0.826321 -22.246260 120 10 12
2.619871 -0.975044 -26.250195 161 18 20
2.603538 -0.974189 -26.227169 161 18 20
2.584968 -0.972483 -26.181236 166 21 23
2.570957 -0.972483 -26.181236 172 27 29
2.563681 -0.975044 -26.250195 174 36 37
2.554119 -0.976759 -26.296370 178 42 43
2.537132 -0.981074 -26.412519 173 37 38
2.522998 -0.981074 -26.412519 177 36 39
2.508863 -0.981074 -26.412519 173 27 31
2.492527 -0.980208 -26.389208 175 25 31
2.478405 -0.980208 -26.389208 174 22 28
2.462111 -0.979343 -26.365936 174 20 25
2.448001 -0.979343 -26.365936 171 16 21
2.161610 -0.996926 -26.839293 185 32 35
2.112832 -0.994248 -26.767210 191 36 40
2.098508 -0.994248 -26.767210 193 39 40
2.044873 -0.996032 -26.815222 188 54 54
2.028704 -0.995139 -26.791195 187 59 60
2.014367 -0.995139 -26.791195 184 64 68
2.001823 -0.996032 -26.815222 153 54 56
1.987474 -0.996032 -26.815222 94 27 26
1.973124 -0.996032 -26.815222 53 12 9
2.274714 -1.191604 -32.080444 9 6 2
2.264837 -1.195453 -32.184040 10 9 5
2.240379 -1.191604 -32.080444 10 9 5
2.220829 -1.190327 -32.046059 9 8 4
2.198966 -1.187781 -31.977510 4 3 0
2.181854 -1.187781 -31.977510 9 7 6
2.164741 -1.187781 -31.977510 9 7 6
2.108893 -1.185246 -31.909256 1 5 6
2.091818 -1.185246 -31.909256 2 7 10
2.074742 -1.185246 -31.909256 0 4 7
-2.188480 -0.851016 -22.911091 6 11 10
-2.194016 -0.848415 -22.841080 29 32 36
-2.199518 -0.845831 -22.771494 45 48 52
-2.363070 -0.826321 -22.246260 48 42 35
-3.065451 -0.826321 -22.246260 4 7 5
-3.077356 -0.826321 -22.246260 3 6 4
4.111722 -0.983050 -26.089853 70 61 48
4.101339 -0.983909 -26.112640 76 64 52
4.059418 -0.983909 -26.112640 52 33 28
4.045444 -0.983909 -26.112640 37 18 13
4.031470 -0.983909 -26.112640 32 11 9
4.017496 -0.983909 -26.112640 30 9 7
2.673713 -0.988224 -26.227169 158 15 18
2.650293 -0.989961 -26.273262 160 17 19
2.603538 -0.988224 -26.227169 159 17 16
2.587233 -0.987358 -26.204184 169 25 24
2.570957 -0.986493 -26.181236 174 31 33
2.563681 -0.989092 -26.250195 178 40 41
2.554119 -0.990831 -26.296370 180 44 45
2.546767 -0.993453 -26.365936 174 39 41
2.537132 -0.995208 -26.412519 173 37 39
2.522998 -0.995208 -26.412519 179 35 40
2.508863 -0.995208 -26.412519 172 24 30
2.372203 -0.979631 -25.999107 181 21 21
2.175972 -1.011289 -26.839293 186 32 33
2.161610 -1.011289 -26.839293 187 32 36
2.145321 -1.010382 -26.815222 191 36 40
2.130971 -1.010382 -26.815222 192 37 41
2.098508 -1.008572 -26.767210 192 39 42
2.082319 -1.007670 -26.743267 188 39 42
2.059223 -1.010382 -26.815222 181 45 46
2.044873 -1.010382 -26.815222 187 52 54
2.030523 -1.010382 -26.815222 187 59 60
2.014367 -1.009476 -26.791195 183 63 67
2.001823 -1.010382 -26.815222 148 51 53
1.987474 -1.010382 -26.815222 92 31 29
2.264837 -1.212675 -32.184040 33 27 22
2.240379 -1.208772 -32.080444 31 27 22
2.220829 -1.207476 -32.046059 33 29 24
2.198966 -1.204893 -31.977510 28 24 19
2.181854 -1.204893 -31.977510 30 27 23
2.143045 -1.202322 -31.909256 3 4 2
2.068120 -1.198485 -31.807417 0 7 10
-2.188480 -0.863276 -22.911091 3 8 7
-2.194016 -0.860638 -22.841080 18 21 25
-3.065451 -0.838226 -22.246260 5 6 4
-3.077356 -0.838226 -22.246260 5 6 4
4.171208 -0.997882 -26.112640 69 57 45
4.115313 -0.997882 -26.112640 70 61 48
4.101339 -0.997882 -26.112640 73 64 51
4.087365 -0.997882 -26.112640 75 63 53
4.073391 -0.997882 -26.112640 63 47 40
4.059418 -0.997882 -26.112640 52 33 28
4.045444 -0.997882 -26.112640 42 23 18
4.031470 -0.997882 -26.112640 34 13 11
4.017496 -0.997882 -26.112640 31 10 8
4.003522 -0.997882 -26.112640 30 9 7
2.687748 -1.002259 -26.227169 154 12 17
2.673713 -1.002259 -26.227169 158 15 18
2.664353 -1.004021 -26.273262 161 18 21
2.650293 -1.004021 -26.273262 163 20 22
2.636233 -1.004021 -26.273262 163 21 20
2.603538 -1.002259 -26.227169 160 21 18
2.587233 -1.001381 -26.204184 166 24 23
2.570957 -1.000504 -26.181236 169 27 26
2.563681 -1.003139 -26.250195 182 44 45
2.554119 -1.004904 -26.296370 181 45 46
2.546767 -1.007562 -26.365936 174 39 41
2.372203 -0.993544 -25.999107 177 17 17
2.161610 -1.025651 -26.839293 186 29 33
2.145321 -1.024731 -26.815222 188 33 37
2.130971 -1.024731 -26.815222 190 37 40
2.116622 -1.024731 -26.815222 187 36 39
2.096631 -1.021982 -26.743267 190 39 42
2.082319 -1.021982 -26.743267 187 41 43
2.059223 -1.024731 -26.815222 183 49 49
2.044873 -1.024731 -26.815222 187 54 56
2.028704 -1.023813 -26.791195 184 57 59
2.014367 -1.023813 -26.791195 176 58 63
2.001823 -1.024731 -26.815222 142 48 52
1.987474 -1.024731 -26.815222 95 38 37
2.235582 -1.223314 -32.011749 54 46 39
2.218451 -1.223314 -32.011749 57 51 44
2.196617 -1.220700 -31.943346 62 56 49
2.179523 -1.220700 -31.943346 58 54 49
2.160121 -1.219397 -31.909256 29 29 23
2.143045 -1.219397 -31.909256 4 5 1
2.102163 -1.215506 -31.807417 2 7 8
2.085142 -1.215506 -31.807417 0 9 12
2.068120 -1.215506 -31.807417 0 7 10
-2.188480 -0.875537 -22.911091 2 7 6
-2.203313 -0.866901 -22.685108 50 54 59
-3.827356 -0.850131 -22.246260 3 6 4
-3.839261 -0.850131 -22.246260 2 5 3
-3.851166 -0.850131 -22.246260 2 5 3
-3.863070 -0.850131 -22.246260 2 5 3
4.171208 -1.011856 -26.112640 65 55 45
4.157234 -1.011856 -26.112640 61 52 39
4.115313 -1.011856 -26.112640 65 56 43
4.101339 -1.011856 -26.112640 64 55 42
4.087365 -1.011856 -26.112640 65 53 43
4.073391 -1.011856 -26.112640 65 52 44
4.059418 -1.011856 -26.112640 60 44 38
4.045444 -1.011856 -26.112640 46 27 22
4.031470 -1.011856 -26.112640 37 16 14
4.017496 -1.011856 -26.112640 35 14 12
4.003522 -1.011856 -26.112640 33 10 8
3.989549 -1.011856 -26.112640 33 10 8
3.874811 -1.007457 -25.999107 43 9 9
2.664353 -1.018080 -26.273262 160 17 20
2.650293 -1.018080 -26.273262 162 19 21
2.636233 -1.018080 -26.273262 160 18 17
2.603538 -1.016294 -26.227169 162 23 20
2.587233 -1.015404 -26.204184 170 29 26
2.570957 -1.014514 -26.181236 176 36 35
2.563681 -1.017187 -26.250195 178 42 43
2.554119 -1.018976 -26.296370 177 43 43
2.546767 -1.021671 -26.365936 173 38 40
2.514114 -1.019873 -26.319519 175 30 38
2.500029 -1.019873 -26.319519 176 25 34
2.483758 -1.018976 -26.296370 177 22 29
2.469686 -1.018976 -26.296370 176 20 27
2.372203 -1.007457 -25.999107 182 22 22
2.358290 -1.007457 -25.999107 177 17 17
2.147247 -1.040014 -26.839293 193 36 40
2.132885 -1.040014 -26.839293 190 37 40
2.118522 -1.040014 -26.839293 192 41 44
2.075434 -1.040014 -26.839293 185 47 48
2.062923 -1.040948 -26.863407 187 53 53
2.046708 -1.040014 -26.839293 190 60 61
2.032346 -1.040014 -26.839293 183 58 60
2.017983 -1.040014 -26.839293 172 59 63
2.003620 -1.040014 -26.839293 134 43 46
1.991045 -1.040948 -26.863407 94 38 37
1.976670 -1.040948 -26.863407 79 46 43
2.218451 -1.240445 -32.011749 61 52 43
2.179523 -1.237794 -31.943346 52 46 39
2.162429 -1.237794 -31.943346 34 32 24
2.143045 -1.236473 -31.909256 6 6 0
2.125969 -1.236473 -31.909256 5 8 6
2.106645 -1.235155 -31.875237 2 7 6
2.089588 -1.235155 -31.875237 1 9 9
2.072530 -1.235155 -31.875237 0 7 7
-2.565145 -1.102355 -28.448118 12 10 9
-2.203313 -0.879041 -22.685108 43 46 51
-3.341365 -0.875057 -22.582306 5 7 7
-3.791642 -0.862035 -22.246260 3 5 5
-3.803547 -0.862035 -22.246260 3 5 5
-3.815451 -0.862035 -22.246260 4 6 6
-3.827356 -0.862035 -22.246260 4 7 5
-3.839261 -0.862035 -22.246260 3 6 4
-3.851166 -0.862035 -22.246260 1 4 2
4.185182 -1.025830 -26.112640 63 54 44
4.101339 -1.025830 -26.112640 63 53 43
4.059418 -1.025830 -26.112640 60 46 40
4.045444 -1.025830 -26.112640 46 30 24
4.031470 -1.025830 -26.112640 37 18 15
4.017496 -1.025830 -26.112640 35 14 12
4.003522 -1.025830 -26.112640 32 9 7
3.989549 -1.025830 -26.112640 32 9 7
3.902975 -1.017830 -25.908989 32 6 6
3.874811 -1.021370 -25.999107 43 7 7
3.173867 -1.010822 -25.730614 94 6 6
2.666696 -1.033048 -26.296370 158 15 18
2.652624 -1.033048 -26.296370 160 17 19
2.638552 -1.033048 -26.296370 160 18 17
2.624480 -1.033048 -26.296370 159 19 18
2.587233 -1.029426 -26.204184 168 27 24
2.573210 -1.029426 -26.204184 178 39 36
2.554119 -1.033048 -26.296370 176 42 42
2.546767 -1.035781 -26.365936 172 36 40
2.532657 -1.035781 -26.365936 176 37 41
2.514114 -1.033957 -26.319519 178 31 39
2.500029 -1.033957 -26.319519 175 25 31
2.483758 -1.033048 -26.296370 174 19 26
2.469686 -1.033048 -26.296370 176 21 26
2.194274 -1.056273 -26.887566 191 30 32
2.179886 -1.056273 -26.887566 193 32 34
2.165498 -1.056273 -26.887566 196 34 39
2.149176 -1.055324 -26.863407 195 36 40
2.104159 -1.054376 -26.839293 188 42 44
2.089796 -1.054376 -26.839293 191 48 50
2.075434 -1.054376 -26.839293 185 49 50
2.062923 -1.055324 -26.863407 187 55 55
2.048547 -1.055324 -26.863407 188 59 62
2.032346 -1.054376 -26.839293 180 59 63
2.017983 -1.054376 -26.839293 164 57 60
2.005421 -1.055324 -26.863407 123 38 42
1.991045 -1.055324 -26.863407 89 37 37
1.976670 -1.055324 -26.863407 78 47 44
2.235582 -1.257575 -32.011749 66 55 47
2.218451 -1.257575 -32.011749 63 54 45
2.177197 -1.253549 -31.909256 59 54 45
2.160121 -1.253549 -31.909256 42 39 31
2.143045 -1.253549 -31.909256 12 9 4
2.108893 -1.253549 -31.909256 1 4 2
2.091818 -1.253549 -31.909256 1 6 5
2.074742 -1.253549 -31.909256 3 7 8
2.029759 -1.246895 -31.739885 4 6 6
-2.559663 -1.121849 -28.556803 12 10 9
-2.565145 -1.117579 -28.448118 11 9 8
-2.203313 -0.891180 -22.685108 40 43 48
-3.341365 -0.887142 -22.582306 7 9 9
-3.353449 -0.887142 -22.582306 7 9 9
-3.732118 -0.873940 -22.246260 3 5 6
-3.744023 -0.873940 -22.246260 4 6 7
-3.755928 -0.873940 -22.246260 4 6 6
-3.767833 -0.873940 -22.246260 4 6 6
-3.779737 -0.873940 -22.246260 3 5 5
-3.791642 -0.873940 -22.246260 3 5 5
-3.803547 -0.873940 -22.246260 1 3 3
-3.815451 -0.873940 -22.246260 2 4 4
-3.827356 -0.873940 -22.246260 3 6 4
-3.839261 -0.873940 -22.246260 3 6 4
-3.851166 -0.873940 -22.246260 2 5 3
4.185182 -1.039804 -26.112640 59 52 43
4.171208 -1.039804 -26.112640 64 54 47
4.157234 -1.039804 -26.112640 65 56 47
4.143260 -1.039804 -26.112640 64 55 45
4.125683 -1.038897 -26.089853 63 54 44
4.104924 -1.040713 -26.135466 63 54 45
4.076952 -1.040713 -26.135466 67 56 48
4.062966 -1.040713 -26.135466 62 50 44
4.048980 -1.040713 -26.135466 49 35 29
4.034994 -1.040713 -26.135466 37 18 15
4.021008 -1.040713 -26.135466 33 12 10
4.007022 -1.040713 -26.135466 31 7 7
3.993036 -1.040713 -26.135466 31 7 7
3.937311 -1.037087 -26.044401 30 6 6
3.902975 -1.031695 -25.908989 33 7 7
3.874811 -1.035283 -25.999107 40 6 6
3.173867 -1.024592 -25.730614 96 8 8
3.160097 -1.024592 -25.730614 99 9 9
2.669043 -1.048042 -26.319519 158 15 18
2.654959 -1.048042 -26.319519 160 17 19
2.640874 -1.048042 -26.319519 162 20 19
2.626790 -1.048042 -26.319519 162 20 19
2.589503 -1.044364 -26.227169 166 27 24
2.575468 -1.044364 -26.227169 176 40 36
2.556367 -1.048042 -26.319519 176 42 42
2.532657 -1.049890 -26.365936 176 37 41
2.514114 -1.048042 -26.319519 178 32 37
2.500029 -1.048042 -26.319519 174 24 30
2.483758 -1.047120 -26.296370 178 22 29
2.469686 -1.047120 -26.296370 175 17 23
2.455614 -1.047120 -26.296370 174 14 20
2.202720 -1.067781 -26.815222 197 34 36
2.192303 -1.069699 -26.863407 192 28 33
2.177927 -1.069699 -26.863407 194 30 35
2.165498 -1.070661 -26.887566 195 31 36
2.149176 -1.069699 -26.863407 192 33 37
2.134801 -1.069699 -26.863407 189 34 38
2.118522 -1.068739 -26.839293 192 41 44
2.089796 -1.068739 -26.839293 187 47 48
2.075434 -1.068739 -26.839293 185 49 50
2.048547 -1.069699 -26.863407 184 59 61
2.032346 -1.068739 -26.839293 177 62 65
2.017983 -1.068739 -26.839293 154 54 59
2.005421 -1.069699 -26.863407 111 36 38
1.991045 -1.069699 -26.863407 85 39 38
1.976670 -1.069699 -26.863407 76 49 45
1.956074 -1.090271 -27.380013 67 57 50
2.174875 -1.269270 -31.875237 57 50 41
2.157818 -1.269270 -31.875237 58 52 45
2.140760 -1.269270 -31.875237 44 40 35
2.048919 -1.265224 -31.773617 5 5 5
2.029759 -1.263880 -31.739885 6 6 6
2.006384 -1.259868 -31.639124 7 7 7
1.624776 -1.227397 -30.823683 3 3 3
1.608282 -1.227397 -30.823683 5 5 5
1.591787 -1.227397 -30.823683 6 6 6
1.575292 -1.227397 -30.823683 4 4 4
1.526688 -1.269270 -31.875237 2 2 2
1.509630 -1.269270 -31.875237 3 3 3
1.492573 -1.269270 -31.875237 2 2 2
-2.559663 -1.137130 -28.556803 12 11 7
-2.565145 -1.132802 -28.448118 11 10 6
-2.203313 -0.903320 -22.685108 34 37 42
-3.244023 -0.885845 -22.246260 8 8 8
-3.353449 -0.899226 -22.582306 6 8 8
-3.648785 -0.885845 -22.246260 7 7 7
-3.660690 -0.885845 -22.246260 7 7 7
-3.696404 -0.885845 -22.246260 5 5 5
-3.708309 -0.885845 -22.246260 6 6 6
-3.720213 -0.885845 -22.246260 5 5 5
-3.732118 -0.885845 -22.246260 5 5 5
-3.744023 -0.885845 -22.246260 5 5 5
-3.755928 -0.885845 -22.246260 5 5 5
-3.767833 -0.885845 -22.246260 4 4 4
-3.779737 -0.885845 -22.246260 4 4 4
-3.791642 -0.885845 -22.246260 4 4 4
-3.803547 -0.885845 -22.246260 2 2 2
-3.815451 -0.885845 -22.246260 2 2 2
4.157234 -1.053778 -26.112640 64 54 47
4.125683 -1.052858 -26.089853 58 51 42
4.111722 -1.052858 -26.089853 57 50 41
4.104924 -1.054699 -26.135466 58 51 42
4.090938 -1.054699 -26.135466 59 52 43
4.076952 -1.054699 -26.135466 63 53 46
4.062966 -1.054699 -26.135466 61 51 44
4.048980 -1.054699 -26.135466 50 38 32
4.034994 -1.054699 -26.135466 36 19 16
4.021008 -1.054699 -26.135466 31 12 9
4.007022 -1.054699 -26.135466 29 8 7
3.993036 -1.054699 -26.135466 32 8 8
3.937311 -1.051024 -26.044401 31 7 7
3.902975 -1.045559 -25.908989 34 8 8
2.654959 -1.062126 -26.319519 157 14 16
2.640874 -1.062126 -26.319519 159 16 18
2.589503 -1.058400 -26.227169 169 29 28
2.575468 -1.058400 -26.227169 174 37 35
2.556367 -1.062126 -26.319519 177 42 44
2.532657 -1.064000 -26.365936 173 34 38
2.516329 -1.063062 -26.342707 175 29 34
2.502232 -1.063062 -26.342707 175 25 31
2.488135 -1.063062 -26.342707 176 21 26
2.474038 -1.063062 -26.342707 176 19 23
2.459941 -1.063062 -26.342707 176 17 21
2.202720 -1.082130 -26.815222 194 31 33
2.192303 -1.084075 -26.863407 199 35 40
2.177927 -1.084075 -26.863407 199 35 40
2.163552 -1.084075 -26.863407 196 32 37
2.149176 -1.084075 -26.863407 196 34 39
2.118522 -1.083102 -26.839293 196 45 48
2.104159 -1.083102 -26.839293 188 43 45
2.089796 -1.083102 -26.839293 184 44 45
2.077298 -1.084075 -26.863407 184 50 50
2.034172 -1.084075 -26.863407 171 64 66
2.019796 -1.084075 -26.863407 140 53 56
2.007224 -1.085050 -26.887566 98 33 35
1.992836 -1.085050 -26.887566 75 37 37
1.980228 -1.086027 -26.911766 65 44 42
1.956074 -1.104923 -27.380013 52 46 39
2.048919 -1.282227 -31.773617 5 3 3
2.029759 -1.280866 -31.739885 2 2 2
2.006384 -1.276799 -31.639124 3 3 3
1.989453 -1.276799 -31.639124 5 5 5
1.637894 -1.241333 -30.760260 0 0 0
1.623103 -1.242611 -30.791939 1 1 1
1.606625 -1.242611 -30.791939 3 3 3
1.590147 -1.242611 -30.791939 3 3 3
1.575292 -1.243892 -30.823683 3 3 3
1.512856 -1.289076 -31.943346 1 1 1
