ply
format ascii 1.0
element vertex 1218
property float x
property float y
property float z
property uchar red
property uchar green
property uchar blue
end_header
-14.194190 9.615294 -220.578903 14 12 12
-14.285099 9.615294 -220.578903 14 14 14
-14.376008 9.615294 -220.578903 11 11 11
-14.466918 9.615294 -220.578903 8 8 8
-14.557827 9.615294 -220.578903 12 12 12
-14.037975 6.314521 -144.857788 30 17 15
-5.355609 2.073887 -47.575840 44 28 16
-15.302296 5.736582 -131.599609 40 25 22
-9.084496 3.311726 -75.972382 107 102 93
-9.115807 3.311726 -75.972382 101 95 88
-9.147118 3.311726 -75.972382 99 96 88
-7.420416 2.370157 -54.372391 56 34 22
-7.380802 2.350405 -53.919289 51 27 15
-7.331743 2.327774 -53.400120 56 31 21
-3.388076 0.997814 -22.890263 107 100 85
-3.397510 0.997814 -22.890263 107 100 85
-3.406944 0.997814 -22.890263 108 99 85
-41.830551 9.615294 -220.578903 103 94 80
-41.921463 9.615294 -220.578903 107 100 85
-42.012371 9.615294 -220.578903 103 96 81
-42.103279 9.615294 -220.578903 100 93 76
-42.194187 9.615294 -220.578903 101 94 77
-42.285099 9.615294 -220.578903 103 96 79
-42.376007 9.615294 -220.578903 104 97 80
-42.466915 9.615294 -220.578903 104 97 80
-42.557827 9.615294 -220.578903 105 98 81
-42.648735 9.615294 -220.578903 106 97 83
-42.739643 9.615294 -220.578903 108 99 85
-42.830551 9.615294 -220.578903 106 97 84
-42.921463 9.615294 -220.578903 106 97 84
-43.012371 9.615294 -220.578903 106 97 84
5.938093 2.582884 -59.818008 99 95 76
5.922565 2.586870 -59.910320 99 95 76
5.916134 2.594879 -60.095798 99 90 77
8.260355 9.524384 -220.578903 49 11 6
2.988772 5.923292 -137.179810 43 14 9
0.544783 1.244463 -28.820999 47 12 9
0.532905 1.244463 -28.820999 55 17 15
0.521026 1.244463 -28.820999 56 18 16
0.509148 1.244463 -28.820999 57 18 16
-0.652227 0.988380 -22.890263 24 18 13
-0.661661 0.988380 -22.890263 24 17 14
-0.671095 0.988380 -22.890263 20 14 9
-0.680529 0.988380 -22.890263 17 11 6
-0.689963 0.988380 -22.890263 15 9 4
-7.739645 9.524384 -220.578903 17 12 11
-7.830554 9.524384 -220.578903 11 6 5
-7.921463 9.524384 -220.578903 6 1 0
-14.103281 9.524384 -220.578903 11 9 9
-14.194190 9.524384 -220.578903 10 10 10
-14.285099 9.524384 -220.578903 8 8 8
-14.376008 9.524384 -220.578903 12 12 12
-14.466918 9.524384 -220.578903 15 15 15
-14.557827 9.524384 -220.578903 19 19 19
-1.756001 0.988380 -22.890263 20 22 23
-14.037975 6.254820 -144.857788 32 19 17
-5.685848 2.440017 -56.509296 24 10 11
-5.957909 2.535994 -58.732052 30 17 15
-5.982114 2.535994 -58.732052 23 11 11
-6.006320 2.535994 -58.732052 25 13 13
-5.355609 2.054279 -47.575840 52 36 23
-15.302296 5.682345 -131.599609 42 23 20
-7.420416 2.347748 -54.372391 52 30 18
-7.380802 2.328183 -53.919289 60 36 24
-7.331743 2.305766 -53.400120 67 41 29
-3.388076 0.988380 -22.890263 102 95 80
-3.397510 0.988380 -22.890263 107 100 85
-41.739643 9.524384 -220.578903 107 98 84
-41.830551 9.524384 -220.578903 101 92 78
-41.921463 9.524384 -220.578903 106 99 84
-42.012371 9.524384 -220.578903 105 98 83
-42.103279 9.524384 -220.578903 105 98 81
-42.194187 9.524384 -220.578903 105 98 81
-42.285099 9.524384 -220.578903 104 97 80
-42.376007 9.524384 -220.578903 103 96 79
-42.466915 9.524384 -220.578903 104 97 80
-42.557827 9.524384 -220.578903 106 99 82
-42.648735 9.524384 -220.578903 103 94 80
-42.739643 9.524384 -220.578903 107 98 84
-42.830551 9.524384 -220.578903 104 95 82
-42.921463 9.524384 -220.578903 107 98 85
-43.012371 9.524384 -220.578903 108 99 86
5.938093 2.558231 -59.818008 97 93 75
5.922565 2.562179 -59.910320 97 93 75
5.916134 2.570111 -60.095798 105 95 85
8.260355 9.433475 -220.578903 48 10 5
2.932235 5.866755 -137.179810 44 15 11
2.875698 5.866755 -137.179810 47 18 14
2.819161 5.866755 -137.179810 44 15 11
-0.642793 0.978946 -22.890263 15 12 4
-0.652227 0.978946 -22.890263 19 15 10
-0.661661 0.978946 -22.890263 22 18 13
-0.671095 0.978946 -22.890263 19 15 10
-0.680529 0.978946 -22.890263 16 12 7
-0.689963 0.978946 -22.890263 16 12 7
-7.921463 9.433475 -220.578903 14 9 8
-8.103281 9.433475 -220.578903 11 6 5
-14.194190 9.433475 -220.578903 8 10 10
-14.285099 9.433475 -220.578903 5 7 7
-14.376008 9.433475 -220.578903 8 10 10
-14.466918 9.433475 -220.578903 18 18 18
-1.756001 0.978946 -22.890263 13 17 18
-14.037975 6.195118 -144.857788 31 17 18
-5.685848 2.416728 -56.509296 26 12 13
-5.957909 2.511788 -58.732052 26 14 10
-5.991178 2.515594 -58.821041 26 13 11
-5.997247 2.507993 -58.643333 27 14 12
-5.976278 2.489193 -58.203728 26 12 13
-5.355609 2.034671 -47.575840 48 31 18
-15.302296 5.628108 -131.599609 44 24 19
-7.420416 2.325339 -54.372391 60 39 24
-7.380802 2.305961 -53.919289 63 42 27
-7.331743 2.283757 -53.400120 68 45 30
-3.388076 0.978946 -22.890263 104 97 82
-41.739643 9.433475 -220.578903 108 100 83
-41.830551 9.433475 -220.578903 105 97 80
-41.921463 9.433475 -220.578903 104 97 80
-42.012371 9.433475 -220.578903 106 99 82
-42.103279 9.433475 -220.578903 102 95 78
-42.194187 9.433475 -220.578903 100 93 76
-42.285099 9.433475 -220.578903 101 97 79
-42.376007 9.433475 -220.578903 103 99 81
-42.466915 9.433475 -220.578903 104 100 82
-42.557827 9.433475 -220.578903 110 103 86
-42.648735 9.433475 -220.578903 106 97 83
-42.739643 9.433475 -220.578903 100 91 77
-42.830551 9.433475 -220.578903 105 96 83
5.938093 2.533577 -59.818008 97 93 75
5.922565 2.537487 -59.910320 96 89 74
5.916134 2.545343 -60.095798 102 92 82
6.408058 3.137961 -74.087570 33 12 10
2.894652 1.920902 -45.352673 44 14 9
2.875961 1.920902 -45.352673 57 21 15
2.857269 1.920902 -45.352673 66 24 19
2.520201 1.812891 -42.802521 78 15 7
8.260355 9.342566 -220.578903 50 12 7
8.169446 9.342566 -220.578903 54 16 11
2.932235 5.810218 -137.179810 48 19 15
2.875698 5.810218 -137.179810 44 15 11
-0.633359 0.969512 -22.890263 13 11 1
-0.642793 0.969512 -22.890263 14 12 2
-0.652227 0.969512 -22.890263 17 13 8
-0.661661 0.969512 -22.890263 20 16 11
-0.671095 0.969512 -22.890263 17 13 8
-0.680529 0.969512 -22.890263 15 11 6
-8.103281 9.342566 -220.578903 11 6 5
-8.194190 9.342566 -220.578903 13 8 7
-1.756001 0.969512 -22.890263 13 17 18
-5.685848 2.393438 -56.509296 32 18 19
-5.957909 2.487582 -58.732052 30 18 14
-5.991178 2.491351 -58.821041 29 16 14
-5.997247 2.483824 -58.643333 29 16 14
-5.976278 2.465205 -58.203728 28 15 13
-5.355609 2.015064 -47.575840 47 31 15
-3.388076 0.969512 -22.890263 108 101 86
-41.648735 9.342566 -220.578903 104 95 81
-41.739643 9.342566 -220.578903 104 96 79
-41.830551 9.342566 -220.578903 107 99 82
-41.921463 9.342566 -220.578903 102 95 78
-42.012371 9.342566 -220.578903 103 96 79
-42.103279 9.342566 -220.578903 102 95 78
-42.194187 9.342566 -220.578903 100 93 76
-42.285099 9.342566 -220.578903 101 97 79
-42.376007 9.342566 -220.578903 101 97 79
-42.466915 9.342566 -220.578903 101 97 79
-42.557827 9.342566 -220.578903 103 99 81
6.408058 3.107427 -74.087570 34 13 11
6.377524 3.107427 -74.087570 35 14 12
2.927022 1.911141 -45.565594 39 9 8
2.908242 1.911141 -45.565594 48 13 9
2.889463 1.911141 -45.565594 58 18 13
2.870684 1.911141 -45.565594 69 22 18
2.851904 1.911141 -45.565594 73 22 19
2.520201 1.795250 -42.802521 75 12 4
2.433136 1.809213 -43.135429 81 20 16
2.407334 1.803202 -42.992123 81 23 18
1.272602 1.147492 -27.358624 85 21 21
5.112426 8.021142 -191.240814 46 15 16
2.932235 5.753681 -137.179810 47 17 16
-0.453369 1.313138 -31.307974 28 16 14
-0.466272 1.313138 -31.307974 32 20 18
-0.576756 0.960078 -22.890263 21 14 11
-0.586190 0.960078 -22.890263 22 15 12
-0.642793 0.960078 -22.890263 12 10 0
-0.652227 0.960078 -22.890263 15 11 6
-0.661661 0.960078 -22.890263 17 13 8
-0.671095 0.960078 -22.890263 16 12 7
-8.103281 9.251657 -220.578903 13 8 7
-8.194190 9.251657 -220.578903 13 7 8
-5.899913 6.311208 -150.472427 23 12 14
-17.739645 9.251657 -220.578903 31 25 20
-17.830553 9.251657 -220.578903 20 15 12
-17.921463 9.251657 -220.578903 16 9 12
-18.012373 9.251657 -220.578903 15 10 12
-18.103281 9.251657 -220.578903 16 9 12
-17.403139 8.849412 -210.988510 17 9 10
-5.685848 2.370148 -56.509296 34 20 21
-5.957909 2.463376 -58.732052 34 19 17
-5.991178 2.467109 -58.821041 34 19 16
-5.997247 2.459655 -58.643333 33 18 15
-5.976278 2.441217 -58.203728 32 17 14
-41.648735 9.251657 -220.578903 108 100 83
-41.739643 9.251657 -220.578903 106 98 81
-41.830551 9.251657 -220.578903 107 99 82
-41.921463 9.251657 -220.578903 104 96 79
-42.012371 9.251657 -220.578903 105 97 80
-42.103279 9.251657 -220.578903 103 96 79
-42.194187 9.251657 -220.578903 102 95 78
-42.285099 9.251657 -220.578903 101 97 78
-42.376007 9.251657 -220.578903 100 96 77
-42.466915 9.251657 -220.578903 100 96 77
31.351265 9.160748 -220.578903 64 50 44
31.260357 9.160748 -220.578903 70 56 50
6.680508 3.118553 -75.090691 31 12 15
6.623936 3.106535 -74.801323 33 12 14
6.562278 3.106535 -74.801323 30 10 9
6.531450 3.106535 -74.801323 30 10 9
6.500621 3.106535 -74.801323 31 10 8
2.932334 1.908038 -45.943062 49 12 8
2.913399 1.908038 -45.943062 55 13 8
2.894464 1.908038 -45.943062 63 15 11
2.875530 1.908038 -45.943062 70 17 14
2.520201 1.777609 -42.802521 81 18 10
2.433136 1.791435 -43.135429 77 19 14
2.407334 1.785484 -42.992123 79 21 16
1.272602 1.136217 -27.358624 83 19 19
8.896719 9.160748 -220.578903 61 15 7
5.191244 7.942324 -191.240814 43 12 13
5.112426 7.942324 -191.240814 46 15 16
5.033609 7.942324 -191.240814 47 16 17
-0.453369 1.300235 -31.307974 34 21 19
-0.466272 1.300235 -31.307974 36 25 21
-0.567322 0.950644 -22.890263 20 13 10
-0.576756 0.950644 -22.890263 18 11 8
-0.586190 0.950644 -22.890263 19 12 9
-0.652227 0.950644 -22.890263 16 12 7
-0.661661 0.950644 -22.890263 15 11 6
-8.194190 9.160748 -220.578903 14 8 9
-5.899913 6.249193 -150.472427 22 11 14
-1.173585 1.114231 -26.829224 113 104 91
-1.195700 1.114231 -26.829224 113 104 91
-17.739645 9.160748 -220.578903 27 21 16
-17.830553 9.160748 -220.578903 18 11 8
-17.921463 9.160748 -220.578903 21 14 17
-18.012373 9.160748 -220.578903 21 16 18
-18.103281 9.160748 -220.578903 23 16 19
-17.403139 8.762455 -210.988510 24 16 17
-5.685848 2.346859 -56.509296 33 19 20
-5.957909 2.439171 -58.732052 30 15 13
-5.982114 2.439171 -58.732052 30 15 12
-6.006320 2.439171 -58.732052 30 15 12
-41.648735 9.160748 -220.578903 109 101 84
-41.739643 9.160748 -220.578903 105 97 80
-41.830551 9.160748 -220.578903 107 99 82
-41.921463 9.160748 -220.578903 107 99 82
-42.012371 9.160748 -220.578903 107 99 82
-42.103279 9.160748 -220.578903 104 97 80
-42.194187 9.160748 -220.578903 103 96 79
-42.285099 9.160748 -220.578903 100 96 77
31.533083 9.069839 -220.578903 43 27 28
31.442175 9.069839 -220.578903 48 34 35
31.351265 9.069839 -220.578903 55 42 40
31.260357 9.069839 -220.578903 65 53 49
6.680508 3.087605 -75.090691 27 6 8
6.623936 3.075707 -74.801323 30 9 11
6.555215 3.058030 -74.371429 31 10 12
2.433136 1.773657 -43.135429 76 17 15
2.407334 1.767765 -42.992123 76 17 15
1.272602 1.124941 -27.358624 81 17 17
8.896719 9.069839 -220.578903 63 16 8
8.805810 9.069839 -220.578903 60 18 6
5.191244 7.863506 -191.240814 41 11 10
5.137735 7.902434 -192.187561 42 14 13
5.033609 7.863506 -191.240814 44 16 15
-0.557888 0.941210 -22.890263 21 14 11
-0.586190 0.941210 -22.890263 20 13 10
-8.194190 9.069839 -220.578903 13 7 8
-5.899913 6.187177 -150.472427 24 15 18
-5.896571 5.934170 -144.319275 28 16 16
-6.015530 5.934170 -144.319275 47 32 29
-6.075009 5.934170 -144.319275 39 24 21
-1.173585 1.103173 -26.829224 105 93 83
-1.184642 1.103173 -26.829224 111 99 87
-1.195700 1.103173 -26.829224 110 98 86
-17.830553 9.069839 -220.578903 23 16 13
-17.921463 9.069839 -220.578903 25 19 20
-18.012373 9.069839 -220.578903 24 17 20
-18.103281 9.069839 -220.578903 23 14 17
-17.403139 8.675499 -210.988510 20 12 13
-5.685848 2.323569 -56.509296 30 16 17
-4.236819 1.117851 -27.186195 103 97 84
-41.921463 9.069839 -220.578903 106 98 81
-42.012371 9.069839 -220.578903 105 97 80
-42.103279 9.069839 -220.578903 104 97 80
-42.194187 9.069839 -220.578903 104 97 80
31.442175 8.978930 -220.578903 34 20 22
31.169447 8.978930 -220.578903 67 55 51
10.873778 4.515119 -110.919678 39 24 21
10.921679 4.554155 -111.878639 33 14 17
6.680508 3.056657 -75.090691 29 8 10
6.623936 3.044878 -74.801323 32 11 13
6.555215 3.027379 -74.371429 32 11 13
2.975922 1.885790 -46.326836 43 9 10
2.956829 1.885790 -46.326836 50 12 10
2.937736 1.885790 -46.326836 52 11 8
8.987628 8.978930 -220.578903 71 19 12
8.896719 8.978930 -220.578903 63 17 6
8.805810 8.978930 -220.578903 62 18 5
5.191244 7.784688 -191.240814 42 12 11
5.137735 7.823226 -192.187561 42 14 13
5.058527 7.823226 -192.187561 44 16 15
-0.548454 0.931776 -22.890263 24 17 14
-0.557888 0.931776 -22.890263 21 14 11
-8.103281 8.978930 -220.578903 11 5 6
-8.194190 8.978930 -220.578903 13 7 8
-5.896571 5.874691 -144.319275 29 17 17
-5.956050 5.874691 -144.319275 37 25 23
-6.015530 5.874691 -144.319275 39 27 21
-18.012373 8.978930 -220.578903 18 12 13
-18.103281 8.978930 -220.578903 15 7 8
-17.403139 8.588542 -210.988510 14 6 6
-4.396105 1.331333 -32.705887 114 101 87
-4.350937 1.313626 -32.270897 114 103 89
-4.306954 1.296384 -31.847322 111 103 86
-4.264111 1.279588 -31.434727 108 101 82
-4.222364 1.263223 -31.032682 108 102 83
-4.181671 1.247270 -30.640795 106 101 80
-4.141993 1.231716 -30.258680 106 101 80
-4.103293 1.216545 -29.885979 104 98 79
-4.065534 1.201743 -29.522346 107 101 82
-4.028683 1.187297 -29.167458 105 98 83
-3.992708 1.173194 -28.820999 104 99 84
-3.957577 1.159422 -28.482676 103 100 85
-3.923261 1.145969 -28.152203 102 99 84
-4.236819 1.106647 -27.186195 103 97 84
-42.012371 8.978930 -220.578903 103 95 78
31.442175 8.888021 -220.578903 30 15 19
31.260357 8.888021 -220.578903 51 38 36
31.169447 8.888021 -220.578903 60 48 44
10.873778 4.469405 -110.919678 34 19 16
10.921679 4.508045 -111.878639 33 14 17
6.680508 3.025709 -75.090691 34 13 12
6.623936 3.014050 -74.801323 33 13 12
6.555215 2.996727 -74.371429 32 12 11
8.987628 8.888021 -220.578903 72 18 11
8.896719 8.888021 -220.578903 64 15 5
5.191244 7.705871 -191.240814 39 12 8
5.137735 7.744019 -192.187561 41 13 12
-0.383757 1.492645 -37.043785 37 18 13
-0.399024 1.492645 -37.043785 35 19 13
-0.425812 0.922342 -22.890263 28 16 12
-0.435246 0.922342 -22.890263 29 17 13
-0.444680 0.922342 -22.890263 27 15 11
-0.454114 0.922342 -22.890263 27 15 11
-0.463548 0.922342 -22.890263 27 15 11
-0.557888 0.922342 -22.890263 21 15 10
-5.912094 5.772294 -143.254196 34 22 20
-5.971135 5.772294 -143.254196 28 18 11
-10.739645 8.888021 -220.578903 66 66 60
-10.830554 8.888021 -220.578903 20 17 13
-10.921463 8.888021 -220.578903 11 8 4
-11.012372 8.888021 -220.578903 17 12 11
-11.103281 8.888021 -220.578903 17 12 11
-11.194190 8.888021 -220.578903 34 29 28
-18.103281 8.888021 -220.578903 16 5 7
-4.396105 1.317853 -32.705887 112 99 85
-4.350937 1.300326 -32.270897 110 99 85
-4.306954 1.283258 -31.847322 107 99 82
-4.264111 1.266633 -31.434727 109 103 84
-4.222364 1.250433 -31.032682 103 99 80
-4.181671 1.234642 -30.640795 104 101 80
-4.141993 1.219245 -30.258680 101 98 77
-4.103293 1.204228 -29.885979 104 100 81
-4.065534 1.189575 -29.522346 103 99 80
-4.028683 1.175276 -29.167458 99 94 79
-3.992708 1.161315 -28.820999 102 97 82
-3.957577 1.147683 -28.482676 103 100 86
-3.923261 1.134367 -28.152203 100 97 83
-4.236819 1.095442 -27.186195 106 97 87
31.260357 8.797112 -220.578903 58 45 43
31.169447 8.797112 -220.578903 66 54 50
26.351265 8.797112 -220.578903 63 52 48
26.260357 8.797112 -220.578903 67 55 51
26.169447 8.797112 -220.578903 66 54 48
10.873778 4.423691 -110.919678 31 14 11
10.921679 4.461936 -111.878639 37 16 18
6.680508 2.994762 -75.090691 32 12 11
6.623936 2.983221 -74.801323 28 8 7
6.555215 2.966076 -74.371429 29 9 8
5.090933 8.369144 -209.848038 44 13 14
0.502378 1.108298 -27.789469 48 16 10
0.490925 1.108298 -27.789469 47 15 9
0.479472 1.108298 -27.789469 51 18 9
0.468019 1.108298 -27.789469 53 17 9
-0.321767 1.473161 -36.938046 50 21 16
-0.336671 1.471760 -36.902935 48 23 19
-0.352550 1.474564 -36.973225 48 23 19
-0.368139 1.475969 -37.008472 47 25 20
-0.384124 1.478789 -37.079166 41 19 14
-0.399024 1.477378 -37.043785 34 14 9
-0.416378 0.912908 -22.890263 31 21 14
-0.425812 0.912908 -22.890263 28 16 12
-0.435246 0.912908 -22.890263 27 15 11
-0.444680 0.912908 -22.890263 27 14 12
-0.454114 0.912908 -22.890263 28 15 13
-0.463548 0.912908 -22.890263 29 17 13
-0.472982 0.912908 -22.890263 29 17 13
-0.557888 0.912908 -22.890263 21 15 10
-0.567322 0.912908 -22.890263 19 13 8
-5.971135 5.713253 -143.254196 21 12 3
-10.648736 8.797112 -220.578903 88 87 77
-10.739645 8.797112 -220.578903 70 70 64
-10.830554 8.797112 -220.578903 25 22 18
-10.921463 8.797112 -220.578903 16 13 9
-11.012372 8.797112 -220.578903 10 6 5
-11.103281 8.797112 -220.578903 13 9 8
-4.396105 1.304374 -32.705887 115 103 91
-4.350937 1.287026 -32.270897 109 100 86
-4.306954 1.270133 -31.847322 106 98 81
-4.264111 1.253677 -31.434727 109 102 85
-4.222364 1.237643 -31.032682 99 95 76
-4.181671 1.222014 -30.640795 103 99 80
-4.141993 1.206775 -30.258680 99 98 78
-4.103293 1.191911 -29.885979 99 95 76
-4.065534 1.177408 -29.522346 104 100 81
-4.028683 1.163254 -29.167458 101 97 79
-3.992708 1.149437 -28.820999 102 97 82
-3.957577 1.135944 -28.482676 105 102 88
-3.923261 1.122764 -28.152203 107 104 90
9.953629 3.908907 -99.035423 100 94 75
10.921679 4.415826 -111.878639 42 18 20
6.680508 2.963814 -75.090691 32 13 10
6.623936 2.952393 -74.801323 32 12 11
6.555215 2.935425 -74.371429 27 9 8
5.090933 8.282658 -209.848038 47 13 13
0.501302 1.094494 -27.729919 46 14 8
0.489873 1.094494 -27.729919 53 17 9
0.478445 1.094494 -27.729919 53 17 7
0.467016 1.094494 -27.729919 56 17 8
-0.307421 1.462110 -37.043785 62 24 20
-0.321767 1.457937 -36.938046 56 21 18
-0.336671 1.456551 -36.902935 57 24 21
-0.352550 1.459325 -36.973225 57 26 23
-0.368139 1.460717 -37.008472 53 24 20
-0.384124 1.463507 -37.079166 47 21 15
-0.399405 1.463507 -37.079166 45 22 14
-0.406944 0.903474 -22.890263 65 59 48
-0.416378 0.903474 -22.890263 30 22 15
-0.425812 0.903474 -22.890263 24 13 9
-0.435246 0.903474 -22.890263 27 14 12
-0.444680 0.903474 -22.890263 30 14 15
-0.454114 0.903474 -22.890263 33 16 19
-0.463548 0.903474 -22.890263 29 13 14
-0.472982 0.903474 -22.890263 29 15 16
-8.103281 8.706203 -220.578903 14 10 9
-1.152359 1.070036 -27.110256 41 32 22
-1.163532 1.070036 -27.110256 39 30 20
-10.557827 8.706203 -220.578903 34 32 21
-10.648736 8.706203 -220.578903 55 53 45
-10.739645 8.706203 -220.578903 48 46 38
-10.830554 8.706203 -220.578903 13 10 5
-10.921463 8.706203 -220.578903 11 8 4
-11.012372 8.706203 -220.578903 9 5 4
-11.103281 8.706203 -220.578903 9 7 6
-11.194190 8.706203 -220.578903 14 10 9
-11.285099 8.706203 -220.578903 14 10 9
9.953629 3.868091 -99.035423 99 93 74
10.093045 3.938420 -100.836067 97 93 75
6.680508 2.932866 -75.090691 30 10 9
5.442173 8.615294 -220.578903 43 11 12
5.090933 8.196172 -209.848038 47 11 11
0.500230 1.080750 -27.670626 47 13 7
0.488826 1.080750 -27.670626 55 19 11
0.477422 1.080750 -27.670626 57 18 9
0.466018 1.080750 -27.670626 59 19 7
0.454613 1.080750 -27.670626 60 18 6
-0.307421 1.446843 -37.043785 63 20 17
-0.321767 1.442713 -36.938046 62 21 19
-0.336671 1.441342 -36.902935 56 18 16
-0.352550 1.444087 -36.973225 56 21 18
-0.368139 1.445464 -37.008472 58 26 21
-0.384124 1.448225 -37.079166 53 25 18
-0.399405 1.448225 -37.079166 46 21 11
-0.406944 0.894040 -22.890263 100 96 85
-0.416378 0.894040 -22.890263 58 52 45
-0.425812 0.894040 -22.890263 32 21 17
-0.435246 0.894040 -22.890263 33 20 18
-0.444680 0.894040 -22.890263 32 15 18
-0.454114 0.894040 -22.890263 31 14 17
-0.463548 0.894040 -22.890263 27 10 13
-0.472982 0.894040 -22.890263 27 13 14
-7.921463 8.615294 -220.578903 13 8 5
-8.012372 8.615294 -220.578903 15 10 7
-8.103281 8.615294 -220.578903 16 11 10
-1.152359 1.058863 -27.110256 35 27 14
-10.648736 8.615294 -220.578903 32 29 21
-10.739645 8.615294 -220.578903 35 33 25
-10.830554 8.615294 -220.578903 30 27 22
-10.921463 8.615294 -220.578903 18 15 11
-11.012372 8.615294 -220.578903 9 7 6
-11.103281 8.615294 -220.578903 6 4 3
-11.194190 8.615294 -220.578903 6 4 3
9.953629 3.827275 -99.035423 102 95 78
10.093045 3.896862 -100.836067 95 91 73
1.068122 1.044771 -27.034740 65 15 9
1.056979 1.044771 -27.034740 62 16 9
1.045837 1.044771 -27.034740 55 16 8
1.034695 1.044771 -27.034740 52 16 8
5.442173 8.524384 -220.578903 43 12 11
5.090933 8.109685 -209.848038 48 12 12
0.499874 1.068584 -27.650917 48 14 8
0.488478 1.068584 -27.650917 52 16 8
0.477082 1.068584 -27.650917 54 15 6
0.465686 1.068584 -27.650917 57 17 5
0.454290 1.068584 -27.650917 61 19 7
-0.307421 1.431576 -37.043785 67 19 17
-0.321767 1.427490 -36.938046 66 21 18
-0.336671 1.426133 -36.902935 61 20 17
-0.352550 1.428849 -36.973225 60 23 19
-0.368139 1.430211 -37.008472 57 25 19
-0.384124 1.432943 -37.079166 56 28 21
-0.416378 0.884606 -22.890263 90 84 77
-0.425812 0.884606 -22.890263 31 20 16
-0.435246 0.884606 -22.890263 31 18 16
-0.444680 0.884606 -22.890263 29 13 14
-0.454114 0.884606 -22.890263 30 14 15
-0.463548 0.884606 -22.890263 30 14 15
-0.472982 0.884606 -22.890263 32 19 17
-4.739645 8.524384 -220.578903 26 17 13
-4.830554 8.524384 -220.578903 26 17 8
-4.921463 8.524384 -220.578903 25 16 6
-7.830554 8.524384 -220.578903 14 8 3
-7.921463 8.524384 -220.578903 14 7 4
-8.012372 8.524384 -220.578903 14 9 6
-8.103281 8.524384 -220.578903 16 11 10
-10.648736 8.524384 -220.578903 27 24 16
-10.739645 8.524384 -220.578903 35 32 27
-10.830554 8.524384 -220.578903 42 39 35
-10.921463 8.524384 -220.578903 32 29 25
-11.012372 8.524384 -220.578903 20 16 15
-11.103281 8.524384 -220.578903 11 7 6
-11.194190 8.524384 -220.578903 8 4 3
9.953629 3.786458 -99.035423 104 97 82
10.093045 3.855303 -100.836067 101 96 81
1.061469 1.027192 -26.866358 67 17 11
1.050396 1.027192 -26.866358 63 15 9
1.039324 1.027192 -26.866358 57 15 8
1.028251 1.027192 -26.866358 54 17 9
5.442173 8.433475 -220.578903 46 15 14
0.499874 1.057188 -27.650917 52 18 12
0.488478 1.057188 -27.650917 50 13 5
0.477082 1.057188 -27.650917 52 13 4
0.465686 1.057188 -27.650917 57 17 5
0.454290 1.057188 -27.650917 63 21 9
-0.307421 1.416309 -37.043785 69 24 21
-0.321767 1.412266 -36.938046 63 21 16
-0.336991 1.412266 -36.938046 59 21 16
-0.368490 1.416309 -37.043785 65 36 27
-0.416378 0.875172 -22.890263 51 46 37
-0.425812 0.875172 -22.890263 27 19 12
-0.435246 0.875172 -22.890263 28 17 13
-0.444680 0.875172 -22.890263 23 10 8
-0.454114 0.875172 -22.890263 24 11 9
-4.830554 8.433475 -220.578903 26 17 8
-4.921463 8.433475 -220.578903 28 19 9
-7.648736 8.433475 -220.578903 15 9 4
-7.739645 8.433475 -220.578903 13 7 2
-7.830554 8.433475 -220.578903 13 7 2
-7.921463 8.433475 -220.578903 13 6 3
-8.012372 8.433475 -220.578903 15 8 5
-8.103281 8.433475 -220.578903 16 11 10
-8.194190 8.433475 -220.578903 18 13 12
-10.739645 8.433475 -220.578903 26 23 18
-10.830554 8.433475 -220.578903 25 22 18
-10.921463 8.433475 -220.578903 30 27 23
-11.012372 8.433475 -220.578903 16 12 11
-11.103281 8.433475 -220.578903 9 5 4
-11.194190 8.433475 -220.578903 8 4 3
-28.194189 8.433475 -220.578903 63 42 21
-6.413218 1.665872 -43.571140 106 99 82
-4.811290 0.921920 -24.112972 106 93 77
-4.818235 0.921348 -24.098005 104 94 76
-4.822181 0.920206 -24.068125 104 97 80
-4.829106 0.919636 -24.053213 101 96 81
-4.842020 0.920206 -24.068125 108 106 95
9.953629 3.745642 -99.035423 101 96 81
10.093045 3.813745 -100.836067 104 98 85
1.046774 1.012615 -26.773714 66 16 10
1.035740 1.012615 -26.773714 60 14 7
1.024705 1.012615 -26.773714 59 17 10
1.013671 1.012615 -26.773714 57 18 10
0.498808 1.043562 -27.591959 49 14 10
0.487436 1.043562 -27.591959 52 15 7
0.476064 1.043562 -27.591959 55 16 7
0.464693 1.043562 -27.591959 60 20 8
0.453321 1.043562 -27.591959 62 20 8
-0.307421 1.401042 -37.043785 56 22 16
-0.353223 1.401042 -37.043785 82 53 44
-0.368490 1.401042 -37.043785 97 75 63
-0.425812 0.865738 -22.890263 20 12 5
-0.435246 0.865738 -22.890263 24 14 7
-0.444680 0.865738 -22.890263 18 7 3
-4.830554 8.342566 -220.578903 26 20 9
-4.921463 8.342566 -220.578903 28 19 9
-5.012372 8.342566 -220.578903 28 19 10
-7.557827 8.342566 -220.578903 17 12 9
-7.648736 8.342566 -220.578903 17 10 7
-7.739645 8.342566 -220.578903 16 10 5
-7.830554 8.342566 -220.578903 15 6 2
-7.921463 8.342566 -220.578903 11 4 1
-8.012372 8.342566 -220.578903 12 5 2
-8.103281 8.342566 -220.578903 15 10 9
-8.194190 8.342566 -220.578903 19 14 13
-10.830554 8.342566 -220.578903 18 13 10
-10.921463 8.342566 -220.578903 22 17 14
-11.103281 8.342566 -220.578903 6 2 1
-11.194190 8.342566 -220.578903 8 4 3
-28.103279 8.342566 -220.578903 71 54 35
-28.194189 8.342566 -220.578903 68 51 30
-6.413218 1.647914 -43.571140 105 101 83
-4.811290 0.911982 -24.112972 107 94 78
-4.818235 0.911416 -24.098005 108 98 80
-4.822181 0.910286 -24.068125 107 99 82
-4.829106 0.909722 -24.053213 102 95 80
-4.842020 0.910286 -24.068125 109 105 94
3.743999 0.856304 -22.890263 18 21 26
9.953629 3.704826 -99.035423 98 92 79
1.049126 0.993360 -26.553959 78 23 18
1.038182 0.993360 -26.553959 68 18 12
1.027238 0.993360 -26.553959 63 15 9
1.016294 0.993360 -26.553959 62 18 11
1.005351 0.993360 -26.553959 59 17 10
0.497041 1.028535 -27.494253 49 12 8
0.485710 1.028535 -27.494253 54 17 9
0.474379 1.028535 -27.494253 56 17 8
0.463047 1.028535 -27.494253 62 20 8
0.451716 1.028535 -27.494253 63 21 9
-0.325797 1.399125 -37.400661 93 67 55
-0.341211 1.399125 -37.400661 103 79 67
-0.356626 1.399125 -37.400661 114 95 82
-4.921463 8.251657 -220.578903 25 16 6
-5.012372 8.251657 -220.578903 25 16 7
-7.557827 8.251657 -220.578903 12 7 4
-7.648736 8.251657 -220.578903 14 9 6
-7.739645 8.251657 -220.578903 20 11 8
-7.830554 8.251657 -220.578903 18 9 5
-7.921463 8.251657 -220.578903 13 6 3
-8.012372 8.251657 -220.578903 12 5 2
-8.103281 8.251657 -220.578903 14 6 6
-8.194190 8.251657 -220.578903 14 9 8
-8.285099 8.251657 -220.578903 15 9 10
-2.793737 0.856304 -22.890263 53 27 15
-28.012371 8.251657 -220.578903 92 76 60
-28.103279 8.251657 -220.578903 96 82 63
-28.194189 8.251657 -220.578903 91 77 58
-6.413218 1.629957 -43.571140 106 102 84
-4.811290 0.902045 -24.112972 109 96 82
-4.818235 0.901485 -24.098005 107 97 80
-4.822181 0.900367 -24.068125 104 96 79
-4.829106 0.899809 -24.053213 98 90 77
-4.842020 0.900367 -24.068125 111 107 96
3.743999 0.846870 -22.890263 39 38 40
8.278541 3.395489 -91.777512 35 16 19
7.883848 3.324749 -89.865479 33 10 14
7.846811 3.324749 -89.865479 34 10 12
1.057178 0.979735 -26.481504 75 17 11
1.046264 0.979735 -26.481504 77 22 15
1.035350 0.979735 -26.481504 72 20 13
1.024436 0.979735 -26.481504 67 18 10
1.013522 0.979735 -26.481504 63 16 8
1.002607 0.979735 -26.481504 59 13 5
0.991693 0.979735 -26.481504 53 10 1
0.496338 1.015765 -27.455366 50 13 9
0.485023 1.015765 -27.455366 52 15 7
0.473708 1.015765 -27.455366 53 14 5
0.462392 1.015765 -27.455366 59 17 5
0.451077 1.015765 -27.455366 63 21 9
-4.921463 8.160748 -220.578903 27 16 8
-5.012372 8.160748 -220.578903 27 16 8
-5.103281 8.160748 -220.578903 26 15 7
-5.194190 8.160748 -220.578903 25 15 8
-5.285099 8.160748 -220.578903 23 13 6
-7.557827 8.160748 -220.578903 11 6 5
-7.648736 8.160748 -220.578903 15 10 7
-7.739645 8.160748 -220.578903 22 13 10
-7.830554 8.160748 -220.578903 20 11 8
-7.921463 8.160748 -220.578903 17 8 5
-8.012372 8.160748 -220.578903 13 6 3
-8.103281 8.160748 -220.578903 11 3 3
-8.194190 8.160748 -220.578903 11 3 3
-8.285099 8.160748 -220.578903 15 7 7
-2.265435 0.846870 -22.890263 41 25 18
-2.274869 0.846870 -22.890263 41 25 18
-2.284303 0.846870 -22.890263 40 24 17
-2.293737 0.846870 -22.890263 39 23 16
-2.303171 0.846870 -22.890263 40 24 17
-2.312605 0.846870 -22.890263 44 28 21
-2.793737 0.846870 -22.890263 58 32 18
-2.803170 0.846870 -22.890263 59 36 21
-27.921461 8.160748 -220.578903 107 93 81
-28.012371 8.160748 -220.578903 112 99 85
-28.103279 8.160748 -220.578903 117 105 87
-28.194189 8.160748 -220.578903 106 95 75
-4.811290 0.892107 -24.112972 105 94 80
-4.815247 0.891000 -24.083055 104 94 77
-4.825172 0.891000 -24.083055 103 95 78
-4.835097 0.891000 -24.083055 96 88 75
-4.845023 0.891000 -24.083055 114 107 98
3.791169 0.837436 -22.890263 95 90 81
3.781735 0.837436 -22.890263 92 90 80
3.772301 0.837436 -22.890263 89 86 78
3.762867 0.837436 -22.890263 88 85 80
3.753433 0.837436 -22.890263 85 82 78
3.743999 0.837436 -22.890263 79 75 74
8.278541 3.357664 -91.777512 34 16 17
7.883848 3.287712 -89.865479 34 10 12
1.039880 0.962910 -26.319923 78 23 16
1.029032 0.962910 -26.319923 74 20 13
1.018185 0.962910 -26.319923 67 15 8
1.007337 0.962910 -26.319923 62 13 5
0.996490 0.962910 -26.319923 59 13 2
0.985642 0.962910 -26.319923 58 13 2
0.974795 0.962910 -26.319923 58 16 4
-4.921463 8.069839 -220.578903 32 21 13
-5.012372 8.069839 -220.578903 31 20 12
-5.103281 8.069839 -220.578903 25 14 6
-5.194190 8.069839 -220.578903 25 15 8
-5.285099 8.069839 -220.578903 28 18 11
-7.557827 8.069839 -220.578903 15 10 9
-7.648736 8.069839 -220.578903 19 14 13
-7.739645 8.069839 -220.578903 25 15 15
-7.830554 8.069839 -220.578903 19 10 7
-7.921463 8.069839 -220.578903 14 5 2
-8.012372 8.069839 -220.578903 13 4 1
-8.103281 8.069839 -220.578903 12 4 4
-8.194190 8.069839 -220.578903 13 5 5
-8.285099 8.069839 -220.578903 15 7 7
-2.274869 0.837436 -22.890263 40 24 18
-2.284303 0.837436 -22.890263 39 23 16
-2.293737 0.837436 -22.890263 37 21 15
-2.303171 0.837436 -22.890263 34 18 11
-4.732035 1.692839 -46.271618 46 30 23
-4.751105 1.692839 -46.271618 44 31 23
-4.770176 1.692839 -46.271618 42 29 21
-2.784303 0.837436 -22.890263 62 36 22
-2.793737 0.837436 -22.890263 65 42 27
-2.803170 0.837436 -22.890263 71 48 33
-28.012371 8.069839 -220.578903 104 95 81
-28.103279 8.069839 -220.578903 108 98 80
-28.194189 8.069839 -220.578903 102 93 73
-4.812261 0.880528 -24.068125 107 97 80
-4.822181 0.880528 -24.068125 108 99 85
-4.832100 0.880528 -24.068125 98 89 76
3.828905 0.828002 -22.890263 92 83 69
3.819471 0.828002 -22.890263 93 84 70
3.810037 0.828002 -22.890263 95 86 72
3.791169 0.828002 -22.890263 98 90 77
3.781735 0.828002 -22.890263 98 92 81
3.772301 0.828002 -22.890263 88 83 74
3.762867 0.828002 -22.890263 93 89 84
3.753433 0.828002 -22.890263 91 88 84
3.743999 0.828002 -22.890263 84 80 79
8.278541 3.319839 -91.777512 29 11 10
1.037769 0.950130 -26.266500 75 20 11
1.026944 0.950130 -26.266500 71 18 8
1.016118 0.950130 -26.266500 68 17 7
1.005293 0.950130 -26.266500 65 14 4
-4.830554 7.978930 -220.578903 33 24 15
-4.921463 7.978930 -220.578903 32 21 13
-5.012372 7.978930 -220.578903 27 15 9
-5.103281 7.978930 -220.578903 22 10 4
-5.194190 7.978930 -220.578903 30 18 12
-5.285099 7.978930 -220.578903 28 16 10
-7.557827 7.978930 -220.578903 17 11 12
-7.648736 7.978930 -220.578903 18 13 12
-7.739645 7.978930 -220.578903 20 10 10
-7.830554 7.978930 -220.578903 16 6 6
-7.921463 7.978930 -220.578903 19 9 9
-8.012372 7.978930 -220.578903 21 11 11
-8.103281 7.978930 -220.578903 10 2 2
-8.194190 7.978930 -220.578903 12 4 4
-8.285099 7.978930 -220.578903 15 7 7
-8.376008 7.978930 -220.578903 19 11 11
-8.098791 7.632020 -210.988510 15 10 7
-8.557827 7.978930 -220.578903 16 11 8
-8.648736 7.978930 -220.578903 14 9 6
-8.739645 7.978930 -220.578903 9 4 1
-8.830554 7.978930 -220.578903 6 2 0
-8.921463 7.978930 -220.578903 12 8 3
-2.784303 0.828002 -22.890263 69 46 31
-2.793737 0.828002 -22.890263 66 45 30
-2.803170 0.828002 -22.890263 69 50 35
-27.921461 7.978930 -220.578903 106 98 85
-28.012371 7.978930 -220.578903 104 97 82
3.810037 0.818568 -22.890263 95 86 72
3.791169 0.818568 -22.890263 96 88 75
3.781735 0.818568 -22.890263 93 87 76
4.522757 1.481635 -41.432110 103 96 81
4.505681 1.481635 -41.432110 104 97 82
1.177961 0.818568 -22.890263 84 19 11
-4.830554 7.888021 -220.578903 28 16 10
-4.921463 7.888021 -220.578903 28 17 9
-5.012372 7.888021 -220.578903 22 10 4
-5.103281 7.888021 -220.578903 23 11 5
-5.194190 7.888021 -220.578903 26 14 8
-7.557827 7.888021 -220.578903 14 8 9
-7.648736 7.888021 -220.578903 10 4 5
-7.739645 7.888021 -220.578903 15 7 8
-7.830554 7.888021 -220.578903 14 4 4
-7.921463 7.888021 -220.578903 19 9 9
-8.012372 7.888021 -220.578903 21 11 11
-8.103281 7.888021 -220.578903 16 8 8
-8.194190 7.888021 -220.578903 14 6 6
-8.285099 7.888021 -220.578903 16 8 8
-8.376008 7.888021 -220.578903 15 7 7
-8.098791 7.545064 -210.988510 14 9 6
-8.557827 7.888021 -220.578903 16 11 8
-8.648736 7.888021 -220.578903 16 11 8
-2.784303 0.818568 -22.890263 81 62 47
-2.793737 0.818568 -22.890263 86 67 52
-2.803170 0.818568 -22.890263 94 78 62
-27.648735 7.888021 -220.578903 106 98 85
-27.739643 7.888021 -220.578903 105 99 86
-27.830553 7.888021 -220.578903 107 101 88
-27.921461 7.888021 -220.578903 104 98 85
3.810037 0.809134 -22.890263 95 86 73
3.791169 0.809134 -22.890263 94 88 77
3.789681 0.814900 -23.053377 85 80 81
3.780180 0.814900 -23.053377 79 76 78
4.505681 1.464559 -41.432110 106 99 84
12.366075 4.574306 -129.406296 40 11 14
1.177961 0.809134 -22.890263 74 15 6
1.168527 0.809134 -22.890263 82 23 14
-4.739645 7.797112 -220.578903 28 16 12
-4.830554 7.797112 -220.578903 27 15 9
-4.921463 7.797112 -220.578903 26 14 8
-5.012372 7.797112 -220.578903 22 10 4
-5.103281 7.797112 -220.578903 25 13 7
-5.194190 7.797112 -220.578903 27 15 9
-7.557827 7.797112 -220.578903 18 11 14
-7.648736 7.797112 -220.578903 11 5 6
-7.739645 7.797112 -220.578903 14 6 7
-7.830554 7.797112 -220.578903 10 2 3
-7.921463 7.797112 -220.578903 15 7 7
-8.012372 7.797112 -220.578903 17 9 9
-8.103281 7.797112 -220.578903 19 11 11
-8.194190 7.797112 -220.578903 14 6 6
-8.285099 7.797112 -220.578903 16 8 8
-8.376008 7.797112 -220.578903 11 3 3
-8.098791 7.458107 -210.988510 14 7 4
-8.557827 7.797112 -220.578903 16 9 6
-8.648736 7.797112 -220.578903 18 11 8
-9.142453 5.120492 -144.857788 18 10 3
-15.194190 7.797112 -220.578903 22 17 8
-15.285099 7.797112 -220.578903 22 17 8
-2.765435 0.809134 -22.890263 98 82 69
-2.774869 0.809134 -22.890263 103 86 73
-2.784303 0.809134 -22.890263 104 88 75
-2.793737 0.809134 -22.890263 106 90 77
-2.812604 0.809134 -22.890263 109 98 84
-27.557825 7.797112 -220.578903 108 101 86
-27.648735 7.797112 -220.578903 104 99 84
-27.739643 7.797112 -220.578903 102 96 83
-27.830553 7.797112 -220.578903 103 97 84
-27.921461 7.797112 -220.578903 103 97 84
-3.983394 0.882503 -24.965843 112 101 87
3.810037 0.799700 -22.890263 91 83 70
3.791169 0.799700 -22.890263 91 86 77
3.789681 0.805399 -23.053377 67 64 66
13.023445 4.660796 -133.408539 84 41 50
12.366075 4.520973 -129.406296 42 13 16
12.312741 4.520973 -129.406296 41 17 19
1.177961 0.799700 -22.890263 78 20 14
1.168527 0.799700 -22.890263 79 22 13
1.159093 0.799700 -22.890263 80 20 14
-4.648736 7.706203 -220.578903 33 21 15
-4.739645 7.706203 -220.578903 30 18 14
-4.830554 7.706203 -220.578903 27 15 9
-4.921463 7.706203 -220.578903 23 11 5
-5.012372 7.706203 -220.578903 25 13 7
-5.103281 7.706203 -220.578903 25 13 7
-5.194190 7.706203 -220.578903 31 19 13
-5.285099 7.706203 -220.578903 33 21 15
-7.648736 7.706203 -220.578903 19 12 15
-7.739645 7.706203 -220.578903 18 10 11
-7.830554 7.706203 -220.578903 14 6 7
-7.921463 7.706203 -220.578903 13 5 6
-8.012372 7.706203 -220.578903 14 6 6
-8.103281 7.706203 -220.578903 16 8 8
-8.194190 7.706203 -220.578903 14 6 6
-8.285099 7.706203 -220.578903 16 8 8
-8.376008 7.706203 -220.578903 12 4 4
-8.098791 7.371151 -210.988510 11 4 1
-9.265048 5.196520 -148.742859 30 22 15
-9.142453 5.060790 -144.857788 16 10 3
-15.194190 7.706203 -220.578903 25 19 12
-15.285099 7.706203 -220.578903 18 13 4
-2.737133 0.799700 -22.890263 98 94 83
-2.746567 0.799700 -22.890263 101 95 84
-2.756001 0.799700 -22.890263 108 100 87
-2.765435 0.799700 -22.890263 109 97 85
-2.774869 0.799700 -22.890263 113 100 86
-2.784303 0.799700 -22.890263 112 99 85
-2.793737 0.799700 -22.890263 109 98 84
-2.803170 0.799700 -22.890263 108 97 83
-2.812604 0.799700 -22.890263 105 96 82
-27.557825 7.706203 -220.578903 105 100 85
-27.648735 7.706203 -220.578903 104 99 84
-27.739643 7.706203 -220.578903 101 95 82
-27.830553 7.706203 -220.578903 100 94 81
-27.921461 7.706203 -220.578903 103 95 82
-3.983394 0.872213 -24.965843 106 95 81
3.810037 0.790266 -22.890263 90 82 69
13.023445 4.605814 -133.408539 86 43 52
12.968462 4.605814 -133.408539 78 37 44
12.913480 4.605814 -133.408539 66 29 33
12.366075 4.467639 -129.406296 38 12 12
12.312741 4.467639 -129.406296 39 15 15
1.177961 0.790266 -22.890263 79 21 15
1.168527 0.790266 -22.890263 80 23 14
1.159093 0.790266 -22.890263 85 25 19
-4.830554 7.615294 -220.578903 28 16 10
-4.921463 7.615294 -220.578903 23 13 6
-5.012372 7.615294 -220.578903 28 17 13
-5.103281 7.615294 -220.578903 31 20 16
-5.194190 7.615294 -220.578903 35 24 20
-5.285099 7.615294 -220.578903 32 22 15
-7.739645 7.615294 -220.578903 21 14 17
-7.830554 7.615294 -220.578903 19 13 14
-7.921463 7.615294 -220.578903 14 6 7
-8.012372 7.615294 -220.578903 16 8 9
-8.103281 7.615294 -220.578903 14 6 6
-8.194190 7.615294 -220.578903 15 7 7
-8.285099 7.615294 -220.578903 18 11 8
-8.376008 7.615294 -220.578903 17 10 7
-8.098791 7.284194 -210.988510 12 5 2
-9.265048 5.135217 -148.742859 32 24 17
-9.220369 5.076863 -147.052597 22 16 9
-9.142453 5.001089 -144.857788 14 8 1
-15.194190 7.615294 -220.578903 20 14 7
-4.794900 1.618710 -46.886337 101 90 82
-2.737133 0.790266 -22.890263 102 96 83
-2.746567 0.790266 -22.890263 99 93 80
-2.756001 0.790266 -22.890263 104 96 83
-2.765435 0.790266 -22.890263 107 98 85
-2.774869 0.790266 -22.890263 109 97 85
-2.784303 0.790266 -22.890263 107 95 83
-2.793737 0.790266 -22.890263 106 97 84
-2.803170 0.790266 -22.890263 107 98 85
-2.812604 0.790266 -22.890263 105 97 84
-2.822038 0.790266 -22.890263 104 96 83
-27.466917 7.615294 -220.578903 102 95 80
-27.557825 7.615294 -220.578903 102 95 80
-27.648735 7.615294 -220.578903 105 98 83
-27.739643 7.615294 -220.578903 105 98 83
-27.830553 7.615294 -220.578903 104 97 82
-27.921461 7.615294 -220.578903 104 95 81
-3.983394 0.861924 -24.965843 113 100 84
3.828905 0.780832 -22.890263 92 84 71
3.819471 0.780832 -22.890263 93 85 72
3.810037 0.780832 -22.890263 96 88 75
13.439087 4.696070 -137.666260 81 40 48
13.382349 4.696070 -137.666260 73 35 41
13.325612 4.696070 -137.666260 60 23 27
8.814930 3.395620 -99.543297 32 11 13
1.177961 0.780832 -22.890263 75 15 9
1.168527 0.780832 -22.890263 82 22 16
1.159093 0.780832 -22.890263 87 24 20
-4.921463 7.524385 -220.578903 28 18 11
-5.012372 7.524385 -220.578903 32 21 17
-5.103281 7.524385 -220.578903 40 29 25
-5.194190 7.524385 -220.578903 38 27 23
-5.285099 7.524385 -220.578903 37 26 22
-7.739645 7.524385 -220.578903 20 13 16
-7.830554 7.524385 -220.578903 22 15 18
-7.921463 7.524385 -220.578903 16 8 9
-8.012372 7.524385 -220.578903 19 11 12
-8.103281 7.524385 -220.578903 16 8 8
-8.194190 7.524385 -220.578903 16 8 8
-8.285099 7.524385 -220.578903 18 11 8
-8.376008 7.524385 -220.578903 19 12 9
-8.098791 7.197238 -210.988510 16 9 6
-9.265048 5.073915 -148.742859 30 24 17
-9.220369 5.016257 -147.052597 17 11 4
-9.142453 4.941387 -144.857788 9 6 0
-4.765708 1.609103 -47.171188 88 77 73
-4.794900 1.599386 -46.886337 109 99 89
-4.814224 1.599386 -46.886337 118 106 96
-2.482416 0.780832 -22.890263 58 39 31
-2.491850 0.780832 -22.890263 58 40 29
-2.756001 0.780832 -22.890263 103 95 82
-2.765435 0.780832 -22.890263 104 96 83
-2.774869 0.780832 -22.890263 105 97 84
-2.784303 0.780832 -22.890263 107 98 85
-2.793737 0.780832 -22.890263 107 99 86
-2.803170 0.780832 -22.890263 108 100 87
-2.812604 0.780832 -22.890263 105 97 84
-2.822038 0.780832 -22.890263 104 96 83
-27.466917 7.524385 -220.578903 104 97 82
-27.557825 7.524385 -220.578903 104 97 82
-27.648735 7.524385 -220.578903 107 98 84
-27.739643 7.524385 -220.578903 106 97 83
-27.830553 7.524385 -220.578903 104 95 81
3.828905 0.771398 -22.890263 92 83 69
3.819471 0.771398 -22.890263 95 86 72
3.810037 0.771398 -22.890263 100 92 79
3.791169 0.771398 -22.890263 93 86 77
3.781735 0.771398 -22.890263 70 66 61
3.772301 0.771398 -22.890263 51 46 47
12.490985 4.405023 -130.713425 38 12 12
12.437113 4.405023 -130.713425 34 12 14
8.814930 3.354594 -99.543297 33 14 17
1.479848 0.771398 -22.890263 87 19 14
1.470414 0.771398 -22.890263 84 16 9
1.177961 0.771398 -22.890263 83 19 14
1.168527 0.771398 -22.890263 82 18 13
1.159093 0.771398 -22.890263 83 20 16
-5.194190 7.433476 -220.578903 35 24 20
-5.285099 7.433476 -220.578903 35 24 20
-7.648736 7.433476 -220.578903 20 11 14
-7.739645 7.433476 -220.578903 17 10 13
-7.830554 7.433476 -220.578903 21 14 17
-7.577052 7.110281 -210.988510 16 10 11
-8.103281 7.433476 -220.578903 17 12 11
-8.194190 7.433476 -220.578903 13 8 7
-8.285099 7.433476 -220.578903 17 10 7
-8.376008 7.433476 -220.578903 15 8 5
-8.098791 7.110281 -210.988510 18 11 8
-9.220369 4.955650 -147.052597 20 17 9
-9.142453 4.881686 -144.857788 14 10 5
-4.765708 1.589662 -47.171188 107 99 92
-4.785149 1.589662 -47.171188 97 90 81
-4.814224 1.580063 -46.886337 109 99 89
-2.472982 0.771398 -22.890263 47 31 19
-2.482416 0.771398 -22.890263 56 38 27
-2.491850 0.771398 -22.890263 57 40 27
-2.774869 0.771398 -22.890263 103 97 84
-2.784303 0.771398 -22.890263 106 98 85
-2.793737 0.771398 -22.890263 108 100 87
-2.803170 0.771398 -22.890263 108 100 87
-2.812604 0.771398 -22.890263 106 98 85
-2.822038 0.771398 -22.890263 106 98 85
-27.557825 7.433476 -220.578903 109 100 86
-27.648735 7.433476 -220.578903 111 100 86
-27.739643 7.433476 -220.578903 106 96 79
-27.830553 7.433476 -220.578903 104 94 77
-27.921461 7.433476 -220.578903 107 97 80
3.828905 0.761964 -22.890263 95 88 73
3.819471 0.761964 -22.890263 98 89 75
3.810037 0.761964 -22.890263 96 89 74
3.800603 0.761964 -22.890263 96 89 74
3.791169 0.761964 -22.890263 96 90 79
3.781735 0.761964 -22.890263 92 87 78
3.772301 0.761964 -22.890263 77 74 70
3.762867 0.761964 -22.890263 57 55 55
3.743999 0.761964 -22.890263 37 36 46
4.038205 1.305345 -39.214027 99 92 77
14.433792 4.840044 -145.400330 76 35 43
14.373867 4.840044 -145.400330 79 38 46
14.313942 4.840044 -145.400330 76 35 43
14.254017 4.840044 -145.400330 69 30 38
12.437113 4.351151 -130.713425 29 9 8
8.814930 3.313569 -99.543297 33 11 16
1.489282 0.761964 -22.890263 86 18 13
1.479848 0.761964 -22.890263 87 19 14
1.470414 0.761964 -22.890263 84 16 9
1.460980 0.761964 -22.890263 87 20 11
1.187395 0.761964 -22.890263 85 21 16
1.177961 0.761964 -22.890263 85 21 16
1.168527 0.761964 -22.890263 85 21 16
-7.648736 7.342567 -220.578903 16 8 9
-7.739645 7.342567 -220.578903 15 9 10
-7.830554 7.342567 -220.578903 19 13 14
-7.577052 7.023324 -210.988510 17 11 12
-2.784303 0.761964 -22.890263 100 94 81
-2.793737 0.761964 -22.890263 102 96 83
-2.803170 0.761964 -22.890263 108 100 87
-2.812604 0.761964 -22.890263 108 100 87
-2.822038 0.761964 -22.890263 107 99 86
-27.739643 7.342567 -220.578903 106 96 79
-27.830553 7.342567 -220.578903 106 96 79
-27.921461 7.342567 -220.578903 108 98 81
3.828905 0.752531 -22.890263 87 83 65
3.819471 0.752531 -22.890263 92 85 68
3.810037 0.752531 -22.890263 92 88 69
3.800603 0.752531 -22.890263 92 88 69
3.791169 0.752531 -22.890263 93 89 71
3.781735 0.752531 -22.890263 94 91 76
3.772301 0.752531 -22.890263 86 84 73
3.762867 0.752531 -22.890263 85 83 75
3.753433 0.752531 -22.890263 74 71 67
3.743999 0.752531 -22.890263 55 50 51
4.038205 1.289184 -39.214027 97 91 78
14.433792 4.780119 -145.400330 77 35 42
14.373867 4.780119 -145.400330 78 37 44
1.498716 0.752531 -22.890263 86 20 15
1.489282 0.752531 -22.890263 86 18 13
1.479848 0.752531 -22.890263 89 21 16
1.470414 0.752531 -22.890263 85 17 10
1.460980 0.752531 -22.890263 86 19 10
1.177961 0.752531 -22.890263 81 20 10
3.110227 2.823654 -85.889130 53 11 6
3.074829 2.823654 -85.889130 54 13 11
-6.466918 7.251657 -220.578903 28 18 11
-6.557827 7.251657 -220.578903 32 22 15
-7.739645 7.251657 -220.578903 17 12 9
-7.830554 7.251657 -220.578903 14 11 7
-7.577052 6.936368 -210.988510 16 13 9
-2.784303 0.752531 -22.890263 106 98 85
-2.793737 0.752531 -22.890263 103 95 82
-2.803170 0.752531 -22.890263 102 94 81
-2.812604 0.752531 -22.890263 107 99 86
-2.822038 0.752531 -22.890263 109 100 87
-2.831472 0.752531 -22.890263 108 99 86
-27.921461 7.251657 -220.578903 105 98 79
-28.012371 7.251657 -220.578903 107 97 80
3.828905 0.743097 -22.890263 92 88 70
3.819471 0.743097 -22.890263 97 91 72
3.810037 0.743097 -22.890263 90 86 67
3.800603 0.743097 -22.890263 87 84 63
3.791169 0.743097 -22.890263 89 85 66
3.781735 0.743097 -22.890263 89 85 67
3.772301 0.743097 -22.890263 86 83 68
3.762867 0.743097 -22.890263 89 85 74
3.753433 0.743097 -22.890263 92 90 80
3.743999 0.743097 -22.890263 86 82 77
3.734565 0.743097 -22.890263 82 79 75
26.623993 7.160748 -220.578903 20 8 8
26.533083 7.160748 -220.578903 22 8 9
26.442175 7.160748 -220.578903 22 7 5
4.038205 1.273022 -39.214027 98 92 81
14.493717 4.720194 -145.400330 78 31 39
14.433792 4.720194 -145.400330 73 31 38
1.498716 0.743097 -22.890263 84 18 13
1.489282 0.743097 -22.890263 83 17 12
1.479848 0.743097 -22.890263 88 20 15
1.470414 0.743097 -22.890263 84 16 11
3.074829 2.788256 -85.889130 56 12 11
3.046170 2.794438 -86.079575 56 15 13
-6.466918 7.160748 -220.578903 30 21 12
-6.557827 7.160748 -220.578903 30 21 12
-6.648736 7.160748 -220.578903 28 17 13
-7.739645 7.160748 -220.578903 17 13 8
-7.830554 7.160748 -220.578903 12 9 5
-7.577052 6.849411 -210.988510 18 15 11
-10.581149 5.626302 -173.311996 38 23 20
-2.793737 0.743097 -22.890263 109 101 88
-2.803170 0.743097 -22.890263 108 100 87
-2.812604 0.743097 -22.890263 110 102 89
-2.822038 0.743097 -22.890263 109 100 87
-2.831472 0.743097 -22.890263 106 97 84
3.828905 0.733663 -22.890263 94 87 70
3.819471 0.733663 -22.890263 94 87 68
3.810037 0.733663 -22.890263 89 83 64
3.800603 0.733663 -22.890263 95 89 70
3.791169 0.733663 -22.890263 96 92 73
3.781735 0.733663 -22.890263 94 90 72
3.772301 0.733663 -22.890263 92 87 72
3.762867 0.733663 -22.890263 91 85 72
3.753433 0.733663 -22.890263 96 91 82
3.743999 0.733663 -22.890263 93 87 80
3.734565 0.733663 -22.890263 93 89 84
26.623993 7.069839 -220.578903 21 7 8
26.533083 7.069839 -220.578903 20 6 7
26.442175 7.069839 -220.578903 23 7 8
14.603104 4.695441 -146.497681 81 36 45
14.542727 4.695441 -146.497681 71 30 37
15.410575 5.017305 -156.539871 50 16 22
15.346059 5.017305 -156.539871 49 17 22
15.281543 5.017305 -156.539871 44 14 19
1.508150 0.733663 -22.890263 80 17 9
1.498716 0.733663 -22.890263 82 18 13
1.489282 0.733663 -22.890263 82 18 13
1.479848 0.733663 -22.890263 87 21 16
3.046170 2.758962 -86.079575 53 11 12
3.010693 2.758962 -86.079575 52 12 13
0.857686 1.716264 -53.547428 53 14 12
0.835617 1.716264 -53.547428 54 15 13
-6.466918 7.069839 -220.578903 34 25 16
-6.557827 7.069839 -220.578903 35 26 17
-6.648736 7.069839 -220.578903 31 20 16
-9.923836 5.317486 -165.905502 31 22 19
-10.121981 5.386544 -168.060120 37 25 23
-10.370826 5.481462 -171.021530 37 24 22
-10.581149 5.554874 -173.311996 35 23 19
-2.803170 0.733663 -22.890263 108 99 89
-2.812604 0.733663 -22.890263 109 100 90
-2.822038 0.733663 -22.890263 108 98 88
-2.831472 0.733663 -22.890263 107 98 85
-2.840906 0.733663 -22.890263 105 96 83
3.828905 0.724229 -22.890263 100 92 75
3.819471 0.724229 -22.890263 94 86 69
3.810037 0.724229 -22.890263 89 82 63
3.800603 0.724229 -22.890263 91 84 65
3.791169 0.724229 -22.890263 94 88 69
3.781735 0.724229 -22.890263 96 89 72
3.772301 0.724229 -22.890263 92 87 72
3.762867 0.724229 -22.890263 90 84 71
3.753433 0.724229 -22.890263 93 87 76
3.743999 0.724229 -22.890263 91 84 75
3.734565 0.724229 -22.890263 91 85 78
26.623993 6.978930 -220.578903 23 9 10
26.533083 6.978930 -220.578903 20 6 7
26.442175 6.978930 -220.578903 23 7 8
26.351265 6.978930 -220.578903 22 6 7
23.169447 6.978930 -220.578903 98 89 76
14.603104 4.635063 -146.497681 76 35 43
1.527018 0.724229 -22.890263 85 23 15
1.517584 0.724229 -22.890263 80 17 9
1.498716 0.724229 -22.890263 83 19 14
1.489282 0.724229 -22.890263 83 19 14
0.857686 1.694196 -53.547428 55 17 15
-0.346120 0.778385 -24.601955 109 102 85
-0.352683 0.770572 -24.355011 104 97 80
-0.359116 0.762914 -24.112972 108 101 84
-0.365423 0.755407 -23.875700 107 99 82
-0.371606 0.748046 -23.643049 106 98 81
-0.377670 0.740827 -23.414890 107 98 84
