ply
format ascii 1.0
element vertex 1236
property float x
property float y
property float z
property uchar red
property uchar green
property uchar blue
end_header
-3.670096 -3.093072 27.736816 19 25 38
-3.655267 -3.093072 27.736816 17 25 38
-3.637068 -3.090208 27.711134 23 32 42
-3.622253 -3.090208 27.711134 25 34 44
-3.607438 -3.090208 27.711134 27 36 46
-3.592623 -3.090208 27.711134 22 32 42
-3.577809 -3.090208 27.711134 12 22 32
-3.562994 -3.090208 27.711134 15 25 35
-3.544897 -3.087349 27.685499 15 25 35
-3.530096 -3.087349 27.685499 15 23 36
-3.512045 -3.084496 27.659912 15 23 36
-3.500493 -3.087349 27.685499 22 30 43
-3.482471 -3.084496 27.659912 19 25 38
-3.467683 -3.084496 27.659912 20 25 40
-3.452896 -3.084496 27.659912 22 27 42
-3.438108 -3.084496 27.659912 20 26 39
-3.423321 -3.084496 27.659912 20 26 37
-3.408534 -3.084496 27.659912 24 30 41
-3.390612 -3.081648 27.634373 21 29 42
-3.375839 -3.081648 27.634373 14 21 36
-3.361065 -3.081648 27.634373 10 17 32
-3.346291 -3.081648 27.634373 14 20 33
-3.328444 -3.078805 27.608879 19 23 34
-3.313684 -3.078805 27.608879 21 23 33
-3.298924 -3.078805 27.608879 15 20 29
-3.284163 -3.078805 27.608879 14 19 28
-3.266390 -3.075967 27.583433 16 22 33
-3.236897 -3.075967 27.583433 24 26 34
-3.219183 -3.073135 27.558035 25 23 29
-3.204450 -3.073135 27.558035 56 49 52
-3.189718 -3.073135 27.558035 94 85 82
-3.172064 -3.070308 27.532682 107 98 88
-3.157344 -3.070308 27.532682 107 100 85
-3.142625 -3.070308 27.532682 108 99 85
-3.104618 -3.061857 27.456903 109 100 86
-3.089939 -3.061857 27.456903 107 98 84
-2.340815 -3.921768 35.168068 113 106 87
-2.252375 -3.898860 34.962646 104 94 76
-2.233684 -3.898860 34.962646 111 101 83
0.307113 -2.979843 26.721451 111 101 84
0.321399 -2.979843 26.721451 109 101 84
0.335385 -2.977185 26.697615 111 103 86
0.349658 -2.977185 26.697615 114 106 89
0.363607 -2.974532 26.673819 111 103 86
0.377867 -2.974532 26.673819 112 102 85
0.392127 -2.974532 26.673819 113 100 86
0.406387 -2.974532 26.673819 107 91 78
0.420273 -2.971883 26.650066 45 27 16
0.434521 -2.971883 26.650066 58 36 25
0.448768 -2.971883 26.650066 57 32 22
0.462193 -2.966600 26.602690 57 28 19
0.476839 -2.969239 26.626358 59 30 21
0.505758 -2.971883 26.650066 53 25 14
0.520006 -2.971883 26.650066 61 35 23
0.533778 -2.969239 26.626358 61 37 25
0.548013 -2.969239 26.626358 51 29 17
0.562248 -2.969239 26.626358 48 29 21
0.576483 -2.969239 26.626358 41 23 22
0.590718 -2.969239 26.626358 33 19 20
0.604953 -2.969239 26.626358 24 12 6
0.618637 -2.966600 26.602690 45 36 26
0.632859 -2.966600 26.602690 111 104 89
0.647657 -2.969239 26.626358 112 103 89
0.661892 -2.969239 26.626358 93 81 69
0.676127 -2.969239 26.626358 41 27 15
0.689748 -2.966600 26.602690 48 32 20
0.703970 -2.966600 26.602690 43 25 14
0.717555 -2.963965 26.579063 52 32 21
0.731764 -2.963965 26.579063 51 31 20
0.745974 -2.963965 26.579063 47 28 20
0.760184 -2.963965 26.579063 49 30 23
0.773706 -2.961335 26.555479 36 17 12
0.787205 -2.958710 26.531937 29 12 9
0.801389 -2.958710 26.531937 36 19 16
0.815573 -2.958710 26.531937 36 19 16
0.840960 -2.948255 26.438185 52 35 26
0.855094 -2.948255 26.438185 45 26 18
0.868461 -2.945653 26.414850 45 26 18
0.882583 -2.945653 26.414850 45 26 18
0.896705 -2.945653 26.414850 44 26 19
0.910827 -2.945653 26.414850 35 19 12
0.924949 -2.945653 26.414850 28 12 6
0.939070 -2.945653 26.414850 37 24 16
0.953192 -2.945653 26.414850 92 82 72
0.967314 -2.945653 26.414850 112 100 90
4.693776 -2.953473 26.484978 113 106 87
4.707935 -2.953473 26.484978 114 104 86
4.722095 -2.953473 26.484978 110 100 82
4.736254 -2.953473 26.484978 111 102 82
4.746213 -2.950862 26.461561 111 104 84
4.760360 -2.950862 26.461561 104 97 78
4.774507 -2.950862 26.461561 106 99 80
4.788653 -2.950862 26.461561 113 105 88
4.802800 -2.950862 26.461561 103 92 78
4.816947 -2.950862 26.461561 56 42 30
4.831093 -2.950862 26.461561 31 14 5
4.872311 -2.958710 26.531937 49 30 22
4.941147 -2.974532 26.673819 55 36 28
4.959827 -2.977185 26.697615 40 22 15
4.974101 -2.977185 26.697615 35 18 15
4.988374 -2.977185 26.697615 40 21 16
5.007113 -2.979843 26.721451 39 15 9
5.016920 -2.977185 26.697615 72 46 34
5.035685 -2.979843 26.721451 76 45 30
5.049970 -2.979843 26.721451 64 32 13
5.064256 -2.979843 26.721451 65 33 10
5.083080 -2.982506 26.745331 73 41 18
5.167984 -2.998585 26.889511 56 23 8
5.182360 -2.998585 26.889511 52 23 9
5.201409 -3.001281 26.913692 62 34 23
5.215797 -3.001281 26.913692 64 35 21
5.230186 -3.001281 26.913692 56 27 13
5.244575 -3.001281 26.913692 82 55 41
5.258963 -3.001281 26.913692 117 91 77
5.297267 -3.006689 26.962185 74 51 36
5.311682 -3.006689 26.962185 71 45 31
5.330899 -3.009400 26.986498 67 44 29
5.345326 -3.009400 26.986498 97 76 61
-4.101631 -3.124576 28.154305 23 26 31
-4.082738 -3.121640 28.127844 28 29 39
-4.067700 -3.121640 28.127844 31 31 43
-3.970124 -3.104135 27.970118 28 28 44
-3.951478 -3.101237 27.944002 32 35 49
-3.936539 -3.101237 27.944002 32 34 44
-3.917941 -3.098344 27.917934 30 34 39
-3.903016 -3.098344 27.917934 28 30 31
-3.888091 -3.098344 27.917934 33 33 33
-3.869556 -3.095456 27.891916 41 37 36
-3.854644 -3.095456 27.891916 65 61 60
-3.839733 -3.095456 27.891916 93 89 88
-3.821260 -3.092574 27.865946 85 80 81
-3.806362 -3.092574 27.865946 46 43 45
-3.791465 -3.092574 27.865946 28 29 33
-3.776567 -3.092574 27.865946 26 28 36
-3.761670 -3.092574 27.865946 22 25 33
-3.743287 -3.089697 27.840023 21 25 36
-3.724938 -3.086826 27.814150 20 26 37
-3.684924 -3.078243 27.736816 19 25 38
-3.670096 -3.078243 27.736816 20 26 39
-3.655267 -3.078243 27.736816 14 20 33
-3.637068 -3.075393 27.711134 18 24 37
-3.618902 -3.072548 27.685499 18 26 39
-3.604101 -3.072548 27.685499 23 31 44
-3.589300 -3.072548 27.685499 33 42 52
-3.574499 -3.072548 27.685499 27 36 46
-3.562994 -3.075393 27.711134 15 24 34
-3.544897 -3.072548 27.685499 15 24 34
-3.526833 -3.069708 27.659912 13 19 30
-3.512045 -3.069708 27.659912 16 22 33
-3.497258 -3.069708 27.659912 21 27 38
-3.482471 -3.069708 27.659912 19 28 38
-3.467683 -3.069708 27.659912 20 28 41
-3.452896 -3.069708 27.659912 21 29 42
-3.438108 -3.069708 27.659912 19 27 40
-3.420160 -3.066874 27.634373 17 27 37
-3.408534 -3.069708 27.659912 20 30 40
-3.393746 -3.069708 27.659912 20 29 39
-3.375839 -3.066874 27.634373 11 19 32
-3.361065 -3.066874 27.634373 12 18 31
-3.346291 -3.066874 27.634373 17 20 34
-3.328444 -3.064045 27.608879 16 17 31
-3.313684 -3.064045 27.608879 20 22 33
-3.298924 -3.064045 27.608879 14 18 29
-3.284163 -3.064045 27.608879 14 20 31
-3.266390 -3.061221 27.583433 17 23 34
-3.251643 -3.061221 27.583433 17 21 32
-3.236897 -3.061221 27.583433 20 22 32
-3.222150 -3.061221 27.583433 18 19 29
-3.207404 -3.061221 27.583433 30 26 37
-3.189718 -3.058402 27.558035 70 64 69
-3.174984 -3.058402 27.558035 100 97 89
-3.160252 -3.058402 27.558035 106 100 87
-3.142625 -3.055588 27.532682 102 94 81
-3.104618 -3.047179 27.456903 111 100 86
-3.089939 -3.047179 27.456903 111 101 84
-2.340815 -3.902966 35.168068 108 98 81
-2.252375 -3.880169 34.962646 108 96 78
-2.233684 -3.880169 34.962646 112 100 82
-2.217583 -3.884707 35.003540 111 101 83
0.320826 -2.960271 26.673819 112 102 85
0.335086 -2.960271 26.673819 113 103 86
0.349346 -2.960271 26.673819 113 103 86
0.363607 -2.960271 26.673819 114 104 87
0.377867 -2.960271 26.673819 119 106 92
0.392127 -2.960271 26.673819 116 103 89
0.406387 -2.960271 26.673819 116 100 88
0.420273 -2.957635 26.650066 58 39 31
0.434134 -2.955004 26.626358 58 35 27
0.448369 -2.955004 26.626358 61 35 28
0.462193 -2.952377 26.602690 61 32 27
0.476839 -2.955004 26.626358 55 26 21
0.505758 -2.957635 26.650066 56 28 21
0.520006 -2.957635 26.650066 56 28 21
0.533778 -2.955004 26.626358 58 33 23
0.548013 -2.955004 26.626358 50 28 17
0.562248 -2.955004 26.626358 42 23 15
0.576483 -2.955004 26.626358 50 33 30
0.590718 -2.955004 26.626358 35 23 19
0.604415 -2.952377 26.602690 26 16 9
0.618637 -2.952377 26.602690 34 28 17
0.632859 -2.952377 26.602690 111 108 94
0.647081 -2.952377 26.602690 112 106 93
0.661304 -2.952377 26.602690 107 99 86
0.676127 -2.955004 26.626358 50 38 26
0.689748 -2.952377 26.602690 47 30 21
0.716918 -2.947138 26.555479 50 28 22
0.731764 -2.949755 26.579063 49 27 21
0.745974 -2.949755 26.579063 45 25 20
0.759509 -2.947138 26.555479 43 24 19
0.773706 -2.947138 26.555479 31 14 11
0.787205 -2.944525 26.531937 31 14 11
0.801389 -2.944525 26.531937 32 12 11
0.840960 -2.934121 26.438185 43 27 15
0.855094 -2.934121 26.438185 40 24 12
0.869228 -2.934121 26.438185 43 27 15
0.883363 -2.934121 26.438185 44 26 19
0.897497 -2.934121 26.438185 39 23 17
0.910827 -2.931531 26.414850 37 20 17
0.924949 -2.931531 26.414850 31 14 11
0.939070 -2.931531 26.414850 37 23 17
0.953192 -2.931531 26.414850 93 81 71
0.967314 -2.931531 26.414850 111 99 89
0.981436 -2.931531 26.414850 113 101 89
0.995558 -2.931531 26.414850 115 103 93
1.009679 -2.931531 26.414850 118 106 94
2.485307 -3.893816 35.085609 109 100 86
4.693776 -2.939314 26.484978 111 103 86
4.707935 -2.939314 26.484978 110 103 84
4.722095 -2.939314 26.484978 108 101 82
4.736254 -2.939314 26.484978 108 101 81
4.746213 -2.936715 26.461561 106 101 80
4.756155 -2.934121 26.438185 106 100 81
4.770288 -2.934121 26.438185 109 102 83
4.784423 -2.934121 26.438185 110 102 85
4.798557 -2.934121 26.438185 100 89 75
4.812692 -2.934121 26.438185 61 45 33
4.826826 -2.934121 26.438185 33 14 6
4.872311 -2.944525 26.531937 47 24 16
4.931282 -2.962912 26.697615 52 28 16
4.941147 -2.960271 26.673819 52 29 21
4.959827 -2.962912 26.697615 51 29 23
4.974101 -2.962912 26.697615 34 15 8
4.988374 -2.962912 26.697615 32 13 6
5.007113 -2.965558 26.721451 49 26 18
5.016920 -2.962912 26.697615 68 42 30
5.035685 -2.965558 26.721451 71 40 25
5.049970 -2.965558 26.721451 58 25 6
5.064256 -2.965558 26.721451 65 30 10
5.078542 -2.965558 26.721451 76 41 21
5.182360 -2.984209 26.889511 54 22 9
5.201409 -2.986893 26.913692 57 28 14
5.215797 -2.986893 26.913692 66 39 25
5.230186 -2.986893 26.913692 65 38 24
5.244575 -2.986893 26.913692 98 72 60
5.258963 -2.986893 26.913692 111 87 75
5.282853 -2.992274 26.962185 77 51 39
5.297267 -2.992274 26.962185 70 44 30
5.311682 -2.992274 26.962185 67 41 27
5.330899 -2.994972 26.986498 61 35 21
-4.101631 -3.109524 28.154305 28 28 34
-4.086579 -3.109524 28.154305 29 28 38
-4.067700 -3.106602 28.127844 28 28 40
-3.936539 -3.086298 27.944002 29 31 41
-3.921600 -3.086298 27.944002 31 35 40
-3.903016 -3.083418 27.917934 23 26 31
-3.888091 -3.083418 27.917934 26 27 31
-3.873165 -3.083418 27.917934 33 32 36
-3.854644 -3.080545 27.891916 41 38 40
-3.839733 -3.080545 27.891916 67 62 64
-3.821260 -3.077677 27.865946 93 88 90
-3.806362 -3.077677 27.865946 74 70 75
-3.791465 -3.077677 27.865946 30 28 34
-3.776567 -3.077677 27.865946 29 28 37
-3.761670 -3.077677 27.865946 29 30 40
-3.743287 -3.074814 27.840023 19 23 34
-3.724938 -3.071956 27.814150 22 28 39
-3.684924 -3.063415 27.736816 20 28 41
-3.670096 -3.063415 27.736816 26 32 45
-3.655267 -3.063415 27.736816 21 27 40
-3.633703 -3.057747 27.685499 21 27 40
-3.618902 -3.057747 27.685499 18 26 39
-3.604101 -3.057747 27.685499 21 29 42
-3.585983 -3.054921 27.659912 28 36 49
-3.574499 -3.057747 27.685499 25 34 44
-3.559698 -3.057747 27.685499 17 26 36
-3.544897 -3.057747 27.685499 14 21 30
-3.526833 -3.054921 27.659912 13 20 29
-3.512045 -3.054921 27.659912 18 25 34
-3.497258 -3.054921 27.659912 23 30 39
-3.482471 -3.054921 27.659912 18 27 37
-3.464481 -3.052100 27.634373 16 25 35
-3.452896 -3.054921 27.659912 19 28 41
-3.434934 -3.052100 27.634373 22 31 44
-3.420160 -3.052100 27.634373 14 26 36
-3.408534 -3.054921 27.659912 17 29 39
-3.393746 -3.054921 27.659912 22 31 41
-3.378959 -3.054921 27.659912 17 25 38
-3.364171 -3.054921 27.659912 16 19 33
-3.346291 -3.052100 27.634373 16 19 33
-3.328444 -3.049285 27.608879 17 18 32
-3.313684 -3.049285 27.608879 15 18 32
-3.298924 -3.049285 27.608879 16 22 33
-3.284163 -3.049285 27.608879 17 23 34
-3.266390 -3.046474 27.583433 19 25 36
-3.251643 -3.046474 27.583433 15 21 32
-3.236897 -3.046474 27.583433 19 21 32
-3.222150 -3.046474 27.583433 17 19 30
-3.207404 -3.046474 27.583433 20 20 34
-3.189718 -3.043669 27.558035 47 44 53
-3.174984 -3.043669 27.558035 85 82 78
-3.160252 -3.043669 27.558035 102 100 90
-3.142625 -3.040869 27.532682 104 98 87
-3.104618 -3.032500 27.456903 108 97 83
-3.089939 -3.032500 27.456903 108 95 79
-2.340815 -3.884165 35.168068 108 97 83
-2.252375 -3.861477 34.962646 112 99 83
-2.233684 -3.861477 34.962646 110 98 80
-2.217583 -3.865994 35.003540 113 103 85
-2.198869 -3.865994 35.003540 112 102 84
-2.180156 -3.865994 35.003540 107 100 81
0.236529 -2.961850 26.817226 109 99 82
0.306566 -2.946011 26.673819 110 100 83
0.320540 -2.943388 26.650066 110 100 83
0.334788 -2.943388 26.650066 113 103 86
0.349035 -2.943388 26.650066 116 103 87
0.363283 -2.943388 26.650066 117 104 88
0.377530 -2.943388 26.650066 96 83 69
0.391778 -2.943388 26.650066 86 73 59
0.406387 -2.946011 26.673819 91 75 63
0.420273 -2.943388 26.650066 80 61 53
0.434134 -2.940769 26.626358 49 27 21
0.448369 -2.940769 26.626358 58 34 28
0.462193 -2.938155 26.602690 59 33 27
0.476839 -2.940769 26.626358 60 31 26
0.491511 -2.943388 26.650066 53 24 19
0.505758 -2.943388 26.650066 52 26 19
0.520006 -2.943388 26.650066 56 30 23
0.533778 -2.940769 26.626358 51 28 20
0.562248 -2.940769 26.626358 46 27 19
0.576483 -2.940769 26.626358 50 34 27
0.590193 -2.938155 26.602690 29 18 10
0.604415 -2.938155 26.602690 26 17 7
0.618637 -2.938155 26.602690 66 60 49
0.632859 -2.938155 26.602690 110 107 93
0.647081 -2.938155 26.602690 105 102 87
0.661304 -2.938155 26.602690 113 107 94
0.675526 -2.938155 26.602690 79 70 57
0.689748 -2.938155 26.602690 38 21 12
0.716918 -2.932941 26.555479 45 21 15
0.731115 -2.932941 26.555479 48 26 21
0.745974 -2.935546 26.579063 51 29 24
0.759509 -2.932941 26.555479 45 26 23
0.773706 -2.932941 26.555479 26 9 6
0.787205 -2.930341 26.531937 28 13 10
0.801389 -2.930341 26.531937 33 13 12
0.840960 -2.919986 26.438185 39 23 11
0.855850 -2.922568 26.461561 42 26 13
0.869228 -2.919986 26.438185 38 22 10
0.883363 -2.919986 26.438185 37 21 14
0.897497 -2.919986 26.438185 43 27 21
0.911631 -2.919986 26.438185 34 17 14
0.925766 -2.919986 26.438185 31 14 11
0.939900 -2.919986 26.438185 36 22 16
0.954034 -2.919986 26.438185 89 77 67
0.968168 -2.919986 26.438185 111 99 89
0.981436 -2.917409 26.414850 112 100 88
0.996437 -2.919986 26.438185 112 100 90
1.010571 -2.919986 26.438185 115 103 93
1.152027 -2.956552 26.769253 114 105 92
1.165296 -2.953909 26.745331 112 103 90
2.485307 -3.875058 35.085609 108 99 85
2.504064 -3.875058 35.085609 108 99 85
4.693776 -2.925154 26.484978 111 103 86
4.707935 -2.925154 26.484978 111 104 85
4.722095 -2.925154 26.484978 110 103 84
4.732066 -2.922568 26.461561 109 102 83
4.746213 -2.922568 26.461561 108 102 83
4.756155 -2.919986 26.438185 109 103 84
4.770288 -2.919986 26.438185 110 102 85
4.784423 -2.919986 26.438185 110 99 85
4.798557 -2.919986 26.438185 99 85 73
4.812692 -2.919986 26.438185 60 44 32
4.826826 -2.919986 26.438185 34 15 7
4.872311 -2.930341 26.531937 51 25 18
4.931282 -2.948639 26.697615 50 24 12
4.941147 -2.946011 26.673819 45 20 10
4.955407 -2.946011 26.673819 42 21 13
4.974101 -2.948639 26.697615 32 13 6
4.988374 -2.948639 26.697615 33 14 7
5.002646 -2.948639 26.697615 51 28 20
5.016920 -2.948639 26.697615 69 43 31
5.035685 -2.951272 26.721451 67 38 23
5.045465 -2.948639 26.697615 62 29 13
5.064256 -2.951272 26.721451 69 33 15
5.078542 -2.951272 26.721451 73 38 18
5.144365 -2.964506 26.841278 68 37 22
5.182360 -2.969833 26.889511 58 27 12
5.196736 -2.969833 26.889511 57 25 12
5.211111 -2.969833 26.889511 69 40 26
5.225487 -2.969833 26.889511 63 36 22
5.239862 -2.969833 26.889511 74 48 36
5.258963 -2.972504 26.913692 87 61 49
5.278098 -2.975180 26.937916 77 51 39
5.297267 -2.977860 26.962185 69 43 31
5.311682 -2.977860 26.962185 60 33 19
5.330899 -2.980545 26.986498 67 40 26
-4.101631 -3.094473 28.154305 44 39 40
-4.086579 -3.094473 28.154305 27 25 31
-4.067700 -3.091564 28.127844 25 25 37
-4.030050 -3.085764 28.075071 27 30 45
-4.015040 -3.085764 28.075071 33 36 51
-3.996282 -3.082872 28.048759 33 33 49
-3.906660 -3.071358 27.944002 29 31 39
-3.891721 -3.071358 27.944002 26 30 35
-3.873165 -3.068493 27.917934 33 36 41
-3.854644 -3.065633 27.891916 28 31 35
-3.839733 -3.065633 27.891916 36 37 41
-3.821260 -3.062779 27.865946 62 61 65
-3.776567 -3.062779 27.865946 30 27 36
-3.758170 -3.059930 27.840023 22 23 33
-3.743287 -3.059930 27.840023 24 28 39
-3.724938 -3.057086 27.814150 22 30 43
-3.684924 -3.048586 27.736816 16 25 38
-3.670096 -3.048586 27.736816 21 29 42
-3.655267 -3.048586 27.736816 23 29 40
-3.633703 -3.042946 27.685499 16 24 37
-3.618902 -3.042946 27.685499 14 22 35
-3.600770 -3.040134 27.659912 16 24 37
-3.585983 -3.040134 27.659912 19 28 41
-3.571195 -3.040134 27.659912 22 31 41
-3.559698 -3.042946 27.685499 21 30 40
-3.544897 -3.042946 27.685499 13 22 31
-3.526833 -3.040134 27.659912 9 18 27
-3.512045 -3.040134 27.659912 14 21 30
-3.497258 -3.040134 27.659912 20 27 36
-3.482471 -3.040134 27.659912 16 25 35
-3.464481 -3.037327 27.634373 14 23 33
-3.449708 -3.037327 27.634373 16 25 38
-3.434934 -3.037327 27.634373 21 30 44
-3.420160 -3.037327 27.634373 19 31 43
-3.408534 -3.040134 27.659912 19 31 43
-3.393746 -3.040134 27.659912 25 33 46
-3.378959 -3.040134 27.659912 24 31 46
-3.364171 -3.040134 27.659912 19 22 37
-3.349384 -3.040134 27.659912 16 19 34
-3.331517 -3.037327 27.634373 19 22 36
-3.313684 -3.034524 27.608879 16 19 33
-3.301970 -3.037327 27.634373 15 21 32
-3.284163 -3.034524 27.608879 16 23 32
-3.266390 -3.031728 27.583433 19 26 35
-3.251643 -3.031728 27.583433 15 22 31
-3.236897 -3.031728 27.583433 21 23 34
-3.222150 -3.031728 27.583433 22 24 35
-3.192657 -3.031728 27.583433 31 30 39
-3.177911 -3.031728 27.583433 62 60 60
-3.163164 -3.031728 27.583433 92 90 82
-3.145519 -3.028936 27.558035 102 97 88
-2.252375 -3.842786 34.962646 111 101 84
-2.233684 -3.842786 34.962646 106 96 78
-2.214992 -3.842786 34.962646 109 99 81
-2.198869 -3.847280 35.003540 109 99 81
-2.180156 -3.847280 35.003540 106 99 80
0.236529 -2.947513 26.817226 109 101 84
0.306566 -2.931751 26.673819 108 100 83
0.320540 -2.929140 26.650066 108 100 83
0.335086 -2.931751 26.673819 111 101 84
0.349346 -2.931751 26.673819 112 99 83
0.363607 -2.931751 26.673819 87 72 56
0.377867 -2.931751 26.673819 69 53 40
0.391778 -2.929140 26.650066 53 37 24
0.406387 -2.931751 26.673819 49 33 21
0.420648 -2.931751 26.673819 59 41 30
0.434134 -2.926534 26.626358 46 25 17
0.448369 -2.926534 26.626358 56 33 25
0.462604 -2.926534 26.626358 56 33 25
0.476839 -2.926534 26.626358 56 30 23
0.505758 -2.929140 26.650066 55 29 22
0.520006 -2.929140 26.650066 51 25 18
0.533778 -2.926534 26.626358 50 28 17
0.576483 -2.926534 26.626358 48 34 22
0.590193 -2.923933 26.602690 37 28 15
0.604415 -2.923933 26.602690 28 21 6
0.618637 -2.923933 26.602690 89 84 69
0.632859 -2.923933 26.602690 107 104 89
0.647081 -2.923933 26.602690 100 98 80
0.661304 -2.923933 26.602690 107 102 87
0.675526 -2.923933 26.602690 108 99 85
0.689748 -2.923933 26.602690 50 34 21
0.716918 -2.918744 26.555479 50 27 19
0.731115 -2.918744 26.555479 52 31 23
0.745974 -2.921336 26.579063 43 21 15
0.759509 -2.918744 26.555479 37 18 13
0.773706 -2.918744 26.555479 28 13 10
0.787205 -2.916157 26.531937 33 18 15
0.801389 -2.916157 26.531937 34 14 13
0.840960 -2.905852 26.438185 37 21 9
0.855850 -2.908421 26.461561 44 28 15
0.869228 -2.905852 26.438185 36 20 8
0.883363 -2.905852 26.438185 31 15 8
0.898291 -2.908421 26.461561 42 26 20
0.911631 -2.905852 26.438185 32 15 12
0.925766 -2.905852 26.438185 32 15 12
0.939900 -2.905852 26.438185 36 22 16
0.954034 -2.905852 26.438185 83 71 61
0.968168 -2.905852 26.438185 113 101 91
0.982303 -2.905852 26.438185 112 100 88
0.996437 -2.905852 26.438185 109 99 89
1.137716 -2.942240 26.769253 110 101 87
1.152027 -2.942240 26.769253 115 104 90
1.165296 -2.939611 26.745331 114 103 89
2.504064 -3.856301 35.085609 108 100 83
2.522822 -3.856301 35.085609 110 100 83
2.597851 -3.856301 35.085609 113 103 86
4.697933 -2.913574 26.508436 112 102 84
4.707935 -2.910995 26.484978 112 102 85
4.722095 -2.910995 26.484978 109 101 84
4.736254 -2.910995 26.484978 109 101 84
4.746213 -2.908421 26.461561 109 101 84
4.756155 -2.905852 26.438185 108 100 83
4.770288 -2.905852 26.438185 108 99 85
4.784423 -2.905852 26.438185 111 100 86
4.798557 -2.905852 26.438185 103 89 77
4.812692 -2.905852 26.438185 63 47 35
4.826826 -2.905852 26.438185 37 18 10
4.872311 -2.916157 26.531937 47 21 14
4.931282 -2.934366 26.697615 46 22 10
4.941147 -2.931751 26.673819 42 20 9
4.955407 -2.931751 26.673819 43 22 14
4.974101 -2.934366 26.697615 37 18 11
4.988374 -2.934366 26.697615 34 15 8
5.002646 -2.934366 26.697615 44 23 15
5.016920 -2.934366 26.697615 60 35 25
5.035685 -2.936986 26.721451 65 38 24
5.045465 -2.934366 26.697615 62 32 15
5.064256 -2.936986 26.721451 66 33 14
5.078542 -2.936986 26.721451 65 32 13
5.144365 -2.950156 26.841278 63 34 19
5.158715 -2.950156 26.841278 60 31 16
5.196736 -2.955458 26.889511 62 29 14
5.211111 -2.955458 26.889511 74 43 28
5.225487 -2.955458 26.889511 63 32 17
5.239862 -2.955458 26.889511 64 35 21
5.254238 -2.955458 26.889511 76 47 33
5.278098 -2.960778 26.937916 65 37 26
5.292500 -2.960778 26.937916 66 38 27
5.311682 -2.963446 26.962185 64 36 25
5.326096 -2.963446 26.962185 60 33 19
5.345326 -2.966118 26.986498 65 38 24
-4.101631 -3.079421 28.154305 75 68 65
-4.086579 -3.079421 28.154305 39 36 38
-4.071527 -3.079421 28.154305 34 33 42
-4.052663 -3.076527 28.127844 25 28 42
-4.033834 -3.073638 28.101433 21 25 43
-4.015040 -3.070755 28.075071 34 36 54
-3.996282 -3.067877 28.048759 30 33 48
-3.981287 -3.067877 28.048759 29 31 42
-3.906660 -3.056419 27.944002 26 28 38
-3.891721 -3.056419 27.944002 22 28 35
-3.873165 -3.053568 27.917934 26 32 39
-3.858240 -3.053568 27.917934 30 36 41
-3.839733 -3.050722 27.891916 31 35 40
-3.821260 -3.047881 27.865946 40 40 46
-3.776567 -3.047881 27.865946 45 41 52
-3.758170 -3.045046 27.840023 24 24 36
-3.743287 -3.045046 27.840023 25 28 42
-3.728403 -3.045046 27.840023 16 24 37
-3.710068 -3.042216 27.814150 18 29 43
-3.688343 -3.036572 27.762547 17 29 41
-3.673500 -3.036572 27.762547 20 28 41
-3.655267 -3.033758 27.736816 25 31 42
-3.637068 -3.030949 27.711134 15 23 36
-3.618902 -3.028145 27.685499 13 21 34
-3.604101 -3.028145 27.685499 16 25 38
-3.585983 -3.025346 27.659912 17 26 39
-3.571195 -3.025346 27.659912 23 32 42
-3.559698 -3.028145 27.685499 26 35 45
-3.544897 -3.028145 27.685499 16 25 35
-3.526833 -3.025346 27.659912 9 18 27
-3.512045 -3.025346 27.659912 10 17 26
-3.497258 -3.025346 27.659912 15 22 31
-3.482471 -3.025346 27.659912 14 23 33
-3.464481 -3.022553 27.634373 12 20 33
-3.449708 -3.022553 27.634373 13 22 36
-3.434934 -3.022553 27.634373 19 28 42
-3.420160 -3.022553 27.634373 21 32 46
-3.408534 -3.025346 27.659912 21 32 46
-3.393746 -3.025346 27.659912 24 31 48
-3.378959 -3.025346 27.659912 29 36 51
-3.367283 -3.028145 27.685499 25 30 45
-3.349384 -3.025346 27.659912 18 21 36
-3.331517 -3.022553 27.634373 20 23 37
-3.316744 -3.022553 27.634373 18 22 33
-3.301970 -3.022553 27.634373 13 20 29
-3.284163 -3.019764 27.608879 14 21 30
-3.266390 -3.016981 27.583433 16 23 32
-3.251643 -3.016981 27.583433 14 21 30
-3.236897 -3.016981 27.583433 18 22 33
-3.222150 -3.016981 27.583433 24 26 37
-3.177911 -3.016981 27.583433 42 41 43
-3.163164 -3.016981 27.583433 72 71 67
-3.145519 -3.014203 27.558035 96 92 87
0.236529 -2.933176 26.817226 113 104 90
0.306566 -2.917491 26.673819 110 102 85
0.320826 -2.917491 26.673819 112 104 87
0.335086 -2.917491 26.673819 113 103 86
0.349346 -2.917491 26.673819 103 90 74
0.363607 -2.917491 26.673819 54 38 25
0.377867 -2.917491 26.673819 58 42 29
0.392127 -2.917491 26.673819 54 38 25
0.406750 -2.920093 26.697615 51 35 23
0.421023 -2.920093 26.697615 51 35 23
0.434521 -2.914893 26.650066 55 37 26
0.448768 -2.914893 26.650066 46 26 15
0.462604 -2.912299 26.626358 55 34 26
0.477263 -2.914893 26.650066 59 37 26
0.505758 -2.914893 26.650066 54 32 21
0.520006 -2.914893 26.650066 44 22 11
0.533778 -2.912299 26.626358 47 27 16
0.548013 -2.912299 26.626358 48 30 19
0.562248 -2.912299 26.626358 49 33 21
0.576483 -2.912299 26.626358 53 40 26
0.590718 -2.912299 26.626358 41 33 16
0.604953 -2.912299 26.626358 39 32 15
0.618637 -2.909711 26.602690 102 98 80
0.632859 -2.909711 26.602690 107 103 85
0.647657 -2.912299 26.626358 115 111 93
0.661892 -2.912299 26.626358 105 98 81
0.675526 -2.909711 26.602690 76 68 51
0.689748 -2.909711 26.602690 40 24 11
0.703970 -2.909711 26.602690 47 30 17
0.717555 -2.907127 26.579063 45 25 14
0.731764 -2.907127 26.579063 54 34 23
0.745974 -2.907127 26.579063 42 23 16
0.760184 -2.907127 26.579063 33 14 9
0.773706 -2.904547 26.555479 29 14 11
0.787205 -2.901972 26.531937 31 16 14
0.801389 -2.901972 26.531937 33 15 14
0.841704 -2.894274 26.461561 37 21 9
0.855850 -2.894274 26.461561 42 26 13
0.869997 -2.894274 26.461561 35 19 7
0.884144 -2.894274 26.461561 30 14 7
0.898291 -2.894274 26.461561 32 16 10
0.912437 -2.894274 26.461561 30 13 10
0.926584 -2.894274 26.461561 34 18 12
0.940731 -2.894274 26.461561 36 23 15
0.954878 -2.894274 26.461561 77 65 55
0.969024 -2.894274 26.461561 115 103 91
0.982303 -2.891718 26.438185 113 101 89
1.137716 -2.927929 26.769253 111 102 88
1.150998 -2.925312 26.745331 119 108 94
1.165296 -2.925312 26.745331 118 107 93
1.179595 -2.925312 26.745331 115 104 90
2.579093 -3.837543 35.085609 113 106 87
2.597851 -3.837543 35.085609 110 102 85
4.697933 -2.899402 26.508436 111 101 83
4.712105 -2.899402 26.508436 110 100 83
4.726277 -2.899402 26.508436 109 99 82
4.736254 -2.896836 26.484978 108 98 81
4.750413 -2.896836 26.484978 106 97 83
4.760360 -2.894274 26.461561 110 101 87
4.774507 -2.894274 26.461561 109 100 86
4.788653 -2.894274 26.461561 112 100 88
4.802800 -2.894274 26.461561 102 88 76
4.816947 -2.894274 26.461561 58 42 30
4.831093 -2.894274 26.461561 36 18 7
4.872311 -2.901972 26.531937 46 24 13
4.931282 -2.920093 26.697615 48 24 12
4.941147 -2.917491 26.673819 42 21 13
4.955407 -2.917491 26.673819 41 22 14
4.969667 -2.917491 26.673819 35 17 10
4.988374 -2.920093 26.697615 28 10 3
5.002646 -2.920093 26.697615 37 18 10
5.016920 -2.920093 26.697615 57 35 24
5.031192 -2.920093 26.697615 64 38 24
5.045465 -2.920093 26.697615 58 29 14
5.064256 -2.922700 26.721451 65 32 16
5.078542 -2.922700 26.721451 63 30 14
5.144365 -2.935807 26.841278 61 34 20
5.158715 -2.935807 26.841278 58 31 17
5.196736 -2.941082 26.889511 69 36 20
5.211111 -2.941082 26.889511 73 40 24
5.225487 -2.941082 26.889511 64 31 16
5.239862 -2.941082 26.889511 67 34 19
5.254238 -2.941082 26.889511 79 47 34
5.278098 -2.946377 26.937916 58 30 19
5.292500 -2.946377 26.937916 58 32 20
5.311682 -2.949031 26.962185 62 36 24
5.326096 -2.949031 26.962185 66 40 28
5.345326 -2.951690 26.986498 65 38 24
-4.101631 -3.064369 28.154305 99 90 81
-4.086579 -3.064369 28.154305 71 66 63
-4.071527 -3.064369 28.154305 40 39 41
-4.052663 -3.061489 28.127844 24 26 37
-4.033834 -3.058614 28.101433 27 30 45
-4.015040 -3.055745 28.075071 31 35 53
-4.000031 -3.055745 28.075071 27 30 45
-3.981287 -3.052881 28.048759 29 31 42
-3.966292 -3.052881 28.048759 29 31 41
-3.928936 -3.047170 27.996283 22 24 35
-3.891721 -3.041480 27.944002 24 31 40
-3.876782 -3.041480 27.944002 25 32 41
-3.858240 -3.038642 27.917934 29 37 44
-3.839733 -3.035810 27.891916 32 38 45
-3.821260 -3.032984 27.865946 40 43 51
-3.806362 -3.032984 27.865946 34 36 44
-3.791465 -3.032984 27.865946 51 50 60
-3.776567 -3.032984 27.865946 49 48 58
-3.758170 -3.030162 27.840023 30 30 42
-3.743287 -3.030162 27.840023 22 25 39
-3.728403 -3.030162 27.840023 18 26 39
-3.710068 -3.027346 27.814150 19 28 42
-3.688343 -3.021730 27.762547 20 29 42
-3.673500 -3.021730 27.762547 20 28 41
-3.655267 -3.018929 27.736816 27 33 44
-3.637068 -3.016134 27.711134 16 24 37
-3.622253 -3.016134 27.711134 15 23 36
-3.604101 -3.013344 27.685499 18 27 40
-3.589300 -3.013344 27.685499 16 25 38
-3.574499 -3.013344 27.685499 19 28 41
-3.530096 -3.013344 27.685499 14 23 33
-3.515294 -3.013344 27.685499 12 18 29
-3.500493 -3.013344 27.685499 14 20 31
-3.482471 -3.010559 27.659912 12 20 33
-3.464481 -3.007779 27.634373 11 19 32
-3.449708 -3.007779 27.634373 14 21 36
-3.434934 -3.007779 27.634373 21 30 44
-3.420160 -3.007779 27.634373 17 27 44
-3.408534 -3.010559 27.659912 19 29 46
-3.393746 -3.010559 27.659912 21 27 46
-3.378959 -3.010559 27.659912 30 37 54
-3.367283 -3.013344 27.685499 32 37 52
-3.352482 -3.013344 27.685499 19 24 39
-3.331517 -3.007779 27.634373 15 18 32
-3.316744 -3.007779 27.634373 15 19 30
-3.301970 -3.007779 27.634373 14 21 30
-3.284163 -3.005004 27.608879 13 21 28
-3.266390 -3.002235 27.583433 14 22 29
-3.251643 -3.002235 27.583433 13 20 29
-3.236897 -3.002235 27.583433 15 19 30
-3.222150 -3.002235 27.583433 16 20 31
-3.207404 -3.002235 27.583433 17 18 32
-3.177911 -3.002235 27.583433 26 29 34
-3.163164 -3.002235 27.583433 50 49 51
-3.145519 -2.999470 27.558035 87 84 80
-1.964452 -3.864086 35.501808 110 101 88
0.236529 -2.918839 26.817226 109 102 87
0.306566 -2.903230 26.673819 109 101 84
0.320826 -2.903230 26.673819 115 107 90
0.335086 -2.903230 26.673819 111 101 84
0.349346 -2.903230 26.673819 74 58 45
0.363607 -2.903230 26.673819 51 33 22
0.377867 -2.903230 26.673819 53 37 25
0.392127 -2.903230 26.673819 50 34 22
0.406750 -2.905820 26.697615 56 43 29
0.421023 -2.905820 26.697615 63 47 34
0.434521 -2.900645 26.650066 56 40 27
0.448369 -2.898065 26.626358 51 34 21
0.462604 -2.898065 26.626358 47 29 18
0.477263 -2.900645 26.650066 59 40 27
0.491511 -2.900645 26.650066 56 36 25
0.505758 -2.900645 26.650066 48 29 16
0.520006 -2.900645 26.650066 44 25 12
0.533778 -2.898065 26.626358 45 26 13
0.562248 -2.898065 26.626358 50 34 21
0.576483 -2.898065 26.626358 53 40 24
0.590193 -2.895489 26.602690 42 32 14
0.604415 -2.895489 26.602690 57 49 32
0.618637 -2.895489 26.602690 117 113 95
0.632859 -2.895489 26.602690 110 105 90
0.647081 -2.895489 26.602690 94 89 74
0.661892 -2.898065 26.626358 60 53 38
0.675526 -2.895489 26.602690 30 19 5
0.689748 -2.895489 26.602690 31 16 0
0.703970 -2.895489 26.602690 40 24 8
0.717555 -2.892917 26.579063 39 20 7
0.731764 -2.892917 26.579063 46 26 15
0.745974 -2.892917 26.579063 49 30 23
0.760184 -2.892917 26.579063 35 16 11
0.773706 -2.890350 26.555479 26 11 9
0.787205 -2.887788 26.531937 27 12 10
0.802100 -2.890350 26.555479 32 14 13
0.815573 -2.887788 26.531937 43 24 19
0.841704 -2.880128 26.461561 38 22 10
0.856608 -2.882677 26.484978 34 21 7
0.870767 -2.882677 26.484978 31 17 5
0.884926 -2.882677 26.484978 30 15 6
0.899086 -2.882677 26.484978 27 11 4
0.913245 -2.882677 26.484978 26 12 6
0.926584 -2.880128 26.461561 31 17 11
0.940731 -2.880128 26.461561 33 20 12
0.954878 -2.880128 26.461561 69 57 47
0.969024 -2.880128 26.461561 116 104 92
0.983171 -2.880128 26.461561 114 103 89
0.998201 -2.882677 26.484978 112 103 89
1.012360 -2.882677 26.484978 113 105 88
1.027428 -2.885230 26.508436 112 102 84
1.123405 -2.913618 26.769253 113 103 86
1.137716 -2.913618 26.769253 114 104 87
1.152027 -2.913618 26.769253 114 104 87
1.166339 -2.913618 26.769253 118 108 91
1.180650 -2.913618 26.769253 116 106 89
2.560336 -3.818786 35.085609 109 102 83
2.579093 -3.818786 35.085609 111 105 86
2.597851 -3.818786 35.085609 108 101 84
4.712105 -2.885230 26.508436 113 100 84
4.726277 -2.885230 26.508436 110 100 83
4.740449 -2.885230 26.508436 108 97 83
4.754621 -2.885230 26.508436 107 95 83
4.764573 -2.882677 26.484978 111 99 87
4.778732 -2.882677 26.484978 111 99 87
4.792891 -2.882677 26.484978 117 103 91
4.807050 -2.882677 26.484978 104 90 78
4.821209 -2.882677 26.484978 55 39 27
4.835369 -2.882677 26.484978 35 17 6
4.876634 -2.890350 26.555479 47 25 13
4.931282 -2.905820 26.697615 45 23 11
4.941147 -2.903230 26.673819 40 21 13
4.955407 -2.903230 26.673819 40 23 14
4.969667 -2.903230 26.673819 38 20 13
4.988374 -2.905820 26.697615 28 10 3
5.002646 -2.905820 26.697615 35 16 8
5.016920 -2.905820 26.697615 54 34 23
5.031192 -2.905820 26.697615 60 36 24
5.045465 -2.905820 26.697615 54 28 12
5.064256 -2.908415 26.721451 65 34 19
5.078542 -2.908415 26.721451 64 33 18
5.120830 -2.916226 26.793219 61 32 17
5.139755 -2.918839 26.817226 58 31 17
5.154092 -2.918839 26.817226 57 30 16
5.173064 -2.921457 26.841278 66 38 21
5.211111 -2.926707 26.889511 68 35 16
5.225487 -2.926707 26.889511 64 30 14
5.239862 -2.926707 26.889511 64 29 15
5.254238 -2.926707 26.889511 78 46 33
5.278098 -2.931975 26.937916 63 35 24
5.292500 -2.931975 26.937916 63 39 27
5.311682 -2.934617 26.962185 59 37 25
5.326096 -2.934617 26.962185 58 34 22
5.345326 -2.937263 26.986498 66 40 28
-4.101631 -3.049318 28.154305 104 93 85
-4.086579 -3.049318 28.154305 98 92 87
-4.067700 -3.046452 28.127844 63 58 59
-4.052663 -3.046452 28.127844 31 31 37
-4.033834 -3.043591 28.101433 24 26 37
-4.018811 -3.043591 28.101433 29 32 46
-4.000031 -3.040736 28.075071 26 29 43
-3.985022 -3.040736 28.075071 26 28 38
-3.966292 -3.037886 28.048759 27 30 38
-3.928936 -3.032202 27.996283 26 28 39
-3.913969 -3.032202 27.996283 28 32 43
-3.876782 -3.026540 27.944002 29 36 45
-3.858240 -3.023717 27.917934 28 35 44
-3.839733 -3.020899 27.891916 26 34 41
-3.821260 -3.018086 27.865946 36 42 49
-3.806362 -3.018086 27.865946 38 40 50
-3.791465 -3.018086 27.865946 28 30 40
-3.776567 -3.018086 27.865946 33 35 46
-3.761670 -3.018086 27.865946 23 25 36
-3.743287 -3.015279 27.840023 19 22 36
-3.724938 -3.012476 27.814150 21 27 40
-3.710068 -3.012476 27.814150 17 24 39
-3.691767 -3.009679 27.788324 15 23 36
-3.673500 -3.006887 27.762547 21 27 38
-3.658658 -3.006887 27.762547 25 31 42
-3.637068 -3.001319 27.711134 18 26 39
-3.622253 -3.001319 27.711134 15 23 36
-3.604101 -2.998543 27.685499 18 27 40
-3.589300 -2.998543 27.685499 18 27 40
-3.574499 -2.998543 27.685499 17 26 39
-3.530096 -2.998543 27.685499 19 28 38
-3.515294 -2.998543 27.685499 15 21 32
-3.500493 -2.998543 27.685499 13 19 30
-3.482471 -2.995771 27.659912 13 21 34
-3.464481 -2.993005 27.634373 14 22 35
-3.449708 -2.993005 27.634373 16 23 38
-3.434934 -2.993005 27.634373 20 27 42
-3.420160 -2.993005 27.634373 18 25 44
-3.408534 -2.995771 27.659912 19 26 45
-3.393746 -2.995771 27.659912 17 23 42
-3.378959 -2.995771 27.659912 23 30 47
-3.367283 -2.998543 27.685499 31 36 51
-3.352482 -2.998543 27.685499 22 28 41
-3.331517 -2.993005 27.634373 15 18 32
-3.313684 -2.990244 27.608879 14 19 28
-3.298924 -2.990244 27.608879 13 20 29
-3.284163 -2.990244 27.608879 12 20 27
-3.266390 -2.987488 27.583433 12 20 27
-3.251643 -2.987488 27.583433 12 19 28
-3.236897 -2.987488 27.583433 14 18 29
-3.222150 -2.987488 27.583433 15 18 32
-3.207404 -2.987488 27.583433 18 19 33
-3.192657 -2.987488 27.583433 18 19 33
-3.177911 -2.987488 27.583433 19 21 31
-3.163164 -2.987488 27.583433 29 32 37
-3.145519 -2.984737 27.558035 67 65 65
-3.110325 -2.979250 27.507376 99 93 80
-3.080913 -2.979250 27.507376 104 97 78
-3.063391 -2.976515 27.482117 106 97 77
-3.048699 -2.976515 27.482117 107 97 79
-2.002412 -3.845106 35.501808 109 102 87
-1.983432 -3.845106 35.501808 110 103 88
-1.964452 -3.845106 35.501808 114 102 90
0.222192 -2.904502 26.817226 112 104 91
0.236529 -2.904502 26.817226 108 101 86
0.250866 -2.904502 26.817226 107 100 85
0.278293 -2.891547 26.697615 106 99 82
0.306566 -2.888970 26.673819 107 99 82
0.320826 -2.888970 26.673819 108 100 83
0.335086 -2.888970 26.673819 88 77 63
0.349346 -2.888970 26.673819 63 47 35
0.363607 -2.888970 26.673819 50 34 22
0.377867 -2.888970 26.673819 48 32 20
0.392127 -2.888970 26.673819 34 20 8
0.406750 -2.891547 26.697615 37 23 11
0.421023 -2.891547 26.697615 52 39 25
0.434521 -2.886398 26.650066 47 34 20
0.448369 -2.883830 26.626358 49 33 20
0.462604 -2.883830 26.626358 44 28 15
0.477263 -2.886398 26.650066 47 30 17
0.491949 -2.888970 26.673819 47 30 17
0.505758 -2.886398 26.650066 48 29 16
0.520469 -2.888970 26.673819 44 25 12
0.534253 -2.886398 26.650066 44 25 12
0.548013 -2.883830 26.626358 42 24 13
0.562248 -2.883830 26.626358 51 34 21
0.576483 -2.883830 26.626358 53 39 21
0.590718 -2.883830 26.626358 41 29 11
0.604953 -2.883830 26.626358 47 39 22
0.618637 -2.881266 26.602690 83 76 61
0.632859 -2.881266 26.602690 72 64 51
0.647657 -2.883830 26.626358 39 31 18
0.661892 -2.883830 26.626358 18 9 0
0.676127 -2.883830 26.626358 28 17 3
0.689748 -2.881266 26.602690 44 28 15
0.703970 -2.881266 26.602690 46 29 16
0.731764 -2.878707 26.579063 46 28 17
0.745974 -2.878707 26.579063 46 27 20
0.760184 -2.878707 26.579063 30 13 10
0.774393 -2.878707 26.579063 30 12 13
0.787903 -2.876153 26.555479 28 12 13
0.802100 -2.876153 26.555479 35 15 14
0.815573 -2.873603 26.531937 37 18 13
0.841704 -2.865981 26.461561 39 22 13
0.856608 -2.868517 26.484978 31 17 5
0.870767 -2.868517 26.484978 30 16 4
0.884926 -2.868517 26.484978 32 17 8
0.899086 -2.868517 26.484978 31 15 8
0.913245 -2.868517 26.484978 26 12 6
0.927404 -2.868517 26.484978 29 16 8
0.941563 -2.868517 26.484978 29 17 7
0.955723 -2.868517 26.484978 60 48 36
0.969882 -2.868517 26.484978 115 104 90
0.983171 -2.865981 26.461561 113 103 86
0.998201 -2.868517 26.484978 113 105 88
1.012360 -2.868517 26.484978 114 107 88
1.027428 -2.871058 26.508436 111 101 83
1.137716 -2.899306 26.769253 112 102 85
2.579093 -3.800029 35.085609 110 105 84
2.597851 -3.800029 35.085609 108 101 84
4.726277 -2.871058 26.508436 114 101 85
4.740449 -2.871058 26.508436 111 100 86
4.754621 -2.871058 26.508436 110 98 86
4.768793 -2.871058 26.508436 108 96 84
4.782964 -2.871058 26.508436 110 98 86
4.797136 -2.871058 26.508436 118 104 92
4.811308 -2.871058 26.508436 106 92 80
4.825480 -2.871058 26.508436 55 39 27
4.839652 -2.871058 26.508436 36 18 7
4.876634 -2.876153 26.555479 47 25 13
4.931282 -2.891547 26.697615 43 23 12
4.941147 -2.888970 26.673819 39 20 12
4.955407 -2.888970 26.673819 38 21 12
4.969667 -2.888970 26.673819 40 24 17
4.988374 -2.891547 26.697615 30 14 7
5.002646 -2.891547 26.697615 34 15 7
5.016920 -2.891547 26.697615 49 29 18
5.031192 -2.891547 26.697615 59 35 23
5.045465 -2.891547 26.697615 53 27 13
5.064256 -2.894129 26.721451 59 30 16
5.078542 -2.894129 26.721451 56 27 12
5.120830 -2.901902 26.793219 49 22 8
5.139755 -2.904502 26.817226 48 22 10
5.154092 -2.904502 26.817226 46 20 6
5.173064 -2.907107 26.841278 57 32 12
5.187414 -2.907107 26.841278 68 41 20
5.206433 -2.909717 26.865374 73 41 22
5.220796 -2.909717 26.865374 59 25 9
5.235159 -2.909717 26.865374 61 26 12
5.249521 -2.909717 26.865374 79 47 34
5.273352 -2.914950 26.913692 56 30 18
5.292500 -2.917574 26.937916 85 66 53
5.311682 -2.920202 26.962185 76 59 46
5.326096 -2.920202 26.962185 33 14 1
5.345326 -2.922836 26.986498 52 28 16
-4.101631 -3.034266 28.154305 103 93 86
-4.082738 -3.031414 28.127844 104 95 91
-4.067700 -3.031414 28.127844 99 92 89
-4.048858 -3.028568 28.101433 67 62 64
-4.033834 -3.028568 28.101433 35 34 38
-4.018811 -3.028568 28.101433 27 26 35
-4.000031 -3.025727 28.075071 30 32 40
-3.985022 -3.025727 28.075071 23 26 34
-3.966292 -3.022891 28.048759 17 23 30
-3.928936 -3.017235 27.996283 24 28 39
-3.836158 -3.003189 27.865946 28 33 42
-3.821260 -3.003189 27.865946 31 36 45
-3.802822 -3.000395 27.840023 34 39 48
-3.787938 -3.000395 27.840023 35 40 49
-3.776567 -3.003189 27.865946 28 32 43
-3.761670 -3.003189 27.865946 22 26 37
-3.743287 -3.000395 27.840023 19 22 36
-3.724938 -2.997607 27.814150 15 18 32
-3.706623 -2.994823 27.788324 18 21 35
-3.691767 -2.994823 27.788324 20 23 37
-3.673500 -2.992045 27.762547 20 26 37
-3.637068 -2.986504 27.711134 20 29 39
-3.618902 -2.983742 27.685499 17 26 36
-3.604101 -2.983742 27.685499 19 28 41
-3.585983 -2.980984 27.659912 23 32 45
-3.571195 -2.980984 27.659912 19 28 41
-3.559698 -2.983742 27.685499 19 28 41
-3.544897 -2.983742 27.685499 22 31 41
-3.530096 -2.983742 27.685499 21 30 40
-3.515294 -2.983742 27.685499 17 23 34
-3.500493 -2.983742 27.685499 13 19 30
-3.482471 -2.980984 27.659912 16 22 35
-3.467683 -2.980984 27.659912 18 24 37
-3.449708 -2.978231 27.634373 16 23 38
-3.434934 -2.978231 27.634373 17 24 39
-3.420160 -2.978231 27.634373 21 28 47
-3.405386 -2.978231 27.634373 19 26 45
-3.393746 -2.980984 27.659912 18 25 42
-3.378959 -2.980984 27.659912 17 24 41
-3.367283 -2.983742 27.685499 23 28 43
-3.352482 -2.983742 27.685499 25 31 44
-3.313684 -2.975484 27.608879 13 20 29
-3.298924 -2.975484 27.608879 13 20 29
-3.281137 -2.972742 27.583433 13 21 28
-3.266390 -2.972742 27.583433 10 17 26
-3.248649 -2.970004 27.558035 11 18 27
-3.236897 -2.972742 27.583433 16 20 31
-3.222150 -2.972742 27.583433 16 19 33
-3.207404 -2.972742 27.583433 17 20 35
-3.192657 -2.972742 27.583433 18 21 36
-3.177911 -2.972742 27.583433 15 18 32
-3.163164 -2.972742 27.583433 21 23 33
-3.145519 -2.970004 27.558035 42 41 45
-3.110325 -2.964545 27.507376 99 95 84
-3.095619 -2.964545 27.507376 105 98 83
-3.080913 -2.964545 27.507376 105 98 79
-3.063391 -2.961822 27.482117 103 94 74
-3.048699 -2.961822 27.482117 106 96 78
-1.983432 -3.826126 35.501808 111 104 89
-1.950099 -3.835225 35.586239 115 103 91
-1.931074 -3.835225 35.586239 115 103 91
0.221993 -2.887578 26.793219 109 101 88
0.236318 -2.887578 26.793219 111 103 90
0.250642 -2.887578 26.793219 107 100 85
0.278293 -2.877274 26.697615 106 97 83
0.292566 -2.877274 26.697615 108 100 83
0.306566 -2.874710 26.673819 107 99 82
0.320826 -2.874710 26.673819 99 91 74
0.335086 -2.874710 26.673819 59 48 34
0.349346 -2.874710 26.673819 65 50 41
0.363607 -2.874710 26.673819 66 51 42
0.377867 -2.874710 26.673819 40 25 16
0.392477 -2.877274 26.697615 46 34 22
0.406750 -2.877274 26.697615 79 67 55
0.421023 -2.877274 26.697615 79 67 55
0.434521 -2.872150 26.650066 46 35 21
0.448369 -2.869595 26.626358 39 28 14
0.462604 -2.869595 26.626358 45 32 18
0.477263 -2.872150 26.650066 42 26 13
0.491949 -2.874710 26.673819 45 28 15
0.505758 -2.872150 26.650066 48 31 18
0.520469 -2.874710 26.673819 43 23 12
0.534253 -2.872150 26.650066 45 25 14
0.548501 -2.872150 26.650066 45 25 14
0.562248 -2.869595 26.626358 47 30 17
0.576483 -2.869595 26.626358 56 41 25
0.590718 -2.869595 26.626358 41 28 12
0.604953 -2.869595 26.626358 26 14 2
0.618637 -2.867044 26.602690 27 17 7
0.632859 -2.867044 26.602690 17 6 0
0.647657 -2.869595 26.626358 22 11 3
0.661892 -2.869595 26.626358 33 23 13
0.676127 -2.869595 26.626358 40 25 16
0.689748 -2.867044 26.602690 43 27 15
0.703345 -2.864498 26.579063 43 25 14
0.731764 -2.864498 26.579063 53 34 26
0.745974 -2.864498 26.579063 43 23 18
0.760184 -2.864498 26.579063 32 14 13
0.774393 -2.864498 26.579063 32 13 16
0.787903 -2.861956 26.555479 28 11 14
0.802100 -2.861956 26.555479 35 15 14
0.815573 -2.859419 26.531937 38 19 14
0.842448 -2.854358 26.484978 39 24 15
0.856608 -2.854358 26.484978 30 16 4
0.870767 -2.854358 26.484978 31 17 5
0.884926 -2.854358 26.484978 32 17 8
0.899086 -2.854358 26.484978 36 21 12
0.913245 -2.854358 26.484978 32 19 11
0.927404 -2.854358 26.484978 30 17 9
0.941563 -2.854358 26.484978 28 16 6
0.955723 -2.854358 26.484978 55 43 31
0.969882 -2.854358 26.484978 111 102 88
0.983171 -2.851834 26.461561 109 101 84
0.998201 -2.854358 26.484978 113 106 87
1.012360 -2.854358 26.484978 112 105 86
1.027428 -2.856886 26.508436 112 102 84
2.579093 -3.781271 35.085609 108 103 82
4.712105 -2.856886 26.508436 115 102 86
4.726277 -2.856886 26.508436 115 102 86
4.740449 -2.856886 26.508436 112 102 85
4.754621 -2.856886 26.508436 111 100 86
4.768793 -2.856886 26.508436 113 102 88
4.782964 -2.856886 26.508436 110 99 85
4.797136 -2.856886 26.508436 113 101 89
4.811308 -2.856886 26.508436 100 86 74
4.825480 -2.856886 26.508436 47 32 23
4.839652 -2.856886 26.508436 33 16 7
4.876634 -2.861956 26.555479 47 27 16
4.931282 -2.877274 26.697615 47 27 16
4.941147 -2.874710 26.673819 37 18 10
4.955407 -2.874710 26.673819 32 14 7
4.969667 -2.874710 26.673819 38 22 15
4.983928 -2.874710 26.673819 29 13 6
5.002646 -2.877274 26.697615 33 14 6
5.012448 -2.874710 26.673819 47 27 16
5.031192 -2.877274 26.697615 55 33 21
5.045465 -2.877274 26.697615 56 30 16
5.064256 -2.879843 26.721451 54 25 11
5.078542 -2.879843 26.721451 47 18 4
5.120830 -2.887578 26.793219 42 15 1
5.139755 -2.890165 26.817226 40 14 2
5.149478 -2.887578 26.793219 39 13 0
5.173064 -2.892757 26.841278 44 22 4
5.187414 -2.892757 26.841278 62 38 18
5.201764 -2.892757 26.841278 76 46 29
5.220796 -2.895354 26.865374 57 24 8
5.235159 -2.895354 26.865374 66 33 18
5.249521 -2.895354 26.865374 73 44 30
5.273352 -2.900562 26.913692 51 29 17
5.292500 -2.903172 26.937916 103 87 74
5.311682 -2.905788 26.962185 87 73 61
5.330899 -2.908408 26.986498 30 14 2
5.345326 -2.908408 26.986498 40 21 8
-4.101631 -3.019214 28.154305 87 79 79
-4.082738 -3.016376 28.127844 101 92 89
-4.067700 -3.016376 28.127844 104 95 92
-4.048858 -3.013544 28.101433 93 85 85
-4.033834 -3.013544 28.101433 71 65 66
-4.018811 -3.013544 28.101433 39 36 38
-4.000031 -3.010717 28.075071 25 26 30
-3.985022 -3.010717 28.075071 22 25 30
-3.966292 -3.007895 28.048759 26 29 37
-3.928936 -3.002268 27.996283 22 26 37
-3.836158 -2.988291 27.865946 29 34 43
-3.817705 -2.985511 27.840023 26 31 40
-3.802822 -2.985511 27.840023 29 36 45
-3.787938 -2.985511 27.840023 36 43 52
-3.776567 -2.988291 27.865946 30 36 47
-3.758170 -2.985511 27.840023 31 37 48
-3.743287 -2.985511 27.840023 27 31 42
-3.724938 -2.982737 27.814150 21 22 36
-3.706623 -2.979967 27.788324 19 20 34
-3.691767 -2.979967 27.788324 23 25 36
-3.673500 -2.977203 27.762547 20 24 35
-3.658658 -2.977203 27.762547 20 26 37
-3.637068 -2.971689 27.711134 19 28 38
-3.618902 -2.968940 27.685499 14 23 33
-3.604101 -2.968940 27.685499 16 25 38
-3.585983 -2.966197 27.659912 22 31 44
-3.571195 -2.966197 27.659912 18 27 40
-3.559698 -2.968940 27.685499 17 26 39
-3.544897 -2.968940 27.685499 17 26 36
-3.515294 -2.968940 27.685499 23 29 40
-3.500493 -2.968940 27.685499 15 21 32
-3.485692 -2.968940 27.685499 14 20 33
-3.467683 -2.966197 27.659912 15 21 34
-3.449708 -2.963458 27.634373 15 22 37
-3.434934 -2.963458 27.634373 18 25 40
-3.420160 -2.963458 27.634373 21 29 46
-3.405386 -2.963458 27.634373 18 26 43
-3.393746 -2.966197 27.659912 21 28 45
-3.378959 -2.966197 27.659912 17 24 39
-3.367283 -2.968940 27.685499 19 24 39
-3.352482 -2.968940 27.685499 28 34 47
-3.316744 -2.963458 27.634373 11 17 28
-3.298924 -2.960724 27.608879 15 22 31
-3.281137 -2.957995 27.583433 16 24 31
-3.263382 -2.955271 27.558035 11 18 27
-3.248649 -2.955271 27.558035 10 16 27
-3.236897 -2.957995 27.583433 15 18 32
-3.222150 -2.957995 27.583433 15 18 33
-3.207404 -2.957995 27.583433 13 15 33
-3.192657 -2.957995 27.583433 12 14 32
-3.177911 -2.957995 27.583433 15 17 35
-3.160252 -2.955271 27.558035 22 23 37
-3.145519 -2.955271 27.558035 25 25 31
-3.110325 -2.949839 27.507376 92 89 81
-3.095619 -2.949839 27.507376 97 91 78
-3.078084 -2.947130 27.482117 106 98 81
-3.063391 -2.947130 27.482117 108 98 80
-2.002412 -3.807147 35.501808 107 100 85
-1.983432 -3.807147 35.501808 109 102 87
-1.950099 -3.816200 35.586239 113 101 89
-1.931074 -3.816200 35.586239 111 99 87
0.236318 -2.873254 26.793219 110 102 89
0.250642 -2.873254 26.793219 107 99 86
0.278293 -2.863001 26.697615 108 99 85
0.292566 -2.863001 26.697615 108 100 83
0.306566 -2.860450 26.673819 107 99 82
0.320826 -2.860450 26.673819 96 88 71
0.335086 -2.860450 26.673819 46 37 23
0.349346 -2.860450 26.673819 61 49 39
0.363607 -2.860450 26.673819 52 39 31
0.377867 -2.860450 26.673819 34 23 15
0.392477 -2.863001 26.697615 96 86 76
0.406750 -2.863001 26.697615 119 109 99
0.421023 -2.863001 26.697615 125 117 104
0.434521 -2.857903 26.650066 93 84 71
0.448369 -2.855360 26.626358 40 31 17
0.462604 -2.855360 26.626358 38 27 13
0.477263 -2.857903 26.650066 42 29 15
0.491949 -2.860450 26.673819 43 26 13
0.505758 -2.857903 26.650066 43 26 13
0.520469 -2.860450 26.673819 47 27 16
0.534253 -2.857903 26.650066 51 31 20
0.548501 -2.857903 26.650066 46 26 15
0.562248 -2.855360 26.626358 52 32 21
0.576483 -2.855360 26.626358 49 32 19
0.590718 -2.855360 26.626358 55 39 26
0.604953 -2.855360 26.626358 29 14 5
0.618637 -2.852822 26.602690 25 12 4
0.632859 -2.852822 26.602690 28 14 8
