ply
format ascii 1.0
element vertex 1132
property float x
property float y
property float z
property uchar red
property uchar green
property uchar blue
end_header
-0.597337 3.826344 -85.531006 186 184 184
-0.632196 3.826344 -85.531006 179 182 187
-0.667054 3.826344 -85.531006 148 158 175
-0.701913 3.826344 -85.531006 100 117 143
-0.736771 3.826344 -85.531006 83 103 138
-0.769952 3.818026 -85.345070 81 102 140
-0.804734 3.818026 -85.345070 79 98 135
-0.839517 3.818026 -85.345070 100 114 143
-0.874300 3.818026 -85.345070 164 170 183
-0.909082 3.818026 -85.345070 181 180 184
-0.945921 3.826344 -85.531006 188 184 189
-0.978648 3.818026 -85.345070 185 182 184
-1.013430 3.818026 -85.345070 185 185 185
-1.048213 3.818026 -85.345070 185 185 185
-1.117778 3.818026 -85.345070 185 185 185
-1.155072 3.826344 -85.531006 185 186 184
-1.189930 3.826344 -85.531006 183 186 184
-1.224788 3.826344 -85.531006 182 184 184
-0.853369 1.416365 -31.660267 181 184 182
-0.866272 1.416365 -31.660267 177 178 176
-0.879176 1.416365 -31.660267 148 149 147
-0.892079 1.416365 -31.660267 121 117 116
-0.904982 1.416365 -31.660267 105 101 100
-0.917885 1.416365 -31.660267 88 84 83
-0.930789 1.416365 -31.660267 88 84 83
-0.943692 1.416365 -31.660267 144 142 142
-0.956595 1.416365 -31.660267 183 181 181
-0.969498 1.416365 -31.660267 184 184 184
-0.982401 1.416365 -31.660267 184 184 184
-0.995305 1.416365 -31.660267 183 183 183
-1.008208 1.416365 -31.660267 185 185 185
-1.021111 1.416365 -31.660267 185 185 185
-1.033181 1.415223 -31.634754 184 184 184
-1.046918 1.416365 -31.660267 185 183 183
-1.059821 1.416365 -31.660267 186 184 184
-1.072724 1.416365 -31.660267 186 184 184
-1.085627 1.416365 -31.660267 187 185 185
-2.160451 2.344849 -52.414860 186 187 185
-2.178904 2.341723 -52.344975 186 187 185
-2.194386 2.335495 -52.205757 188 186 186
-2.206858 2.326215 -51.998318 188 186 186
-2.231005 2.329300 -52.067284 186 186 186
-2.255216 2.332393 -52.136429 186 186 186
-2.279492 2.335495 -52.205757 190 185 186
-2.300768 2.335495 -52.205757 188 186 186
-2.322045 2.335495 -52.205757 190 188 188
-2.340210 2.332393 -52.136429 188 188 188
-2.361458 2.332393 -52.136429 186 187 185
-2.382706 2.332393 -52.136429 186 184 183
-2.400766 2.329300 -52.067284 191 184 181
-2.418779 2.326215 -51.998318 191 167 167
-2.436743 2.323138 -51.929539 178 122 127
-2.457907 2.323138 -51.929539 168 96 102
-2.485647 2.329300 -52.067284 170 92 99
-2.510196 2.332393 -52.136429 177 114 116
-2.531445 2.332393 -52.136429 193 161 162
-2.552693 2.332393 -52.136429 193 181 179
-2.573941 2.332393 -52.136429 188 182 183
-2.605571 2.341723 -52.344975 185 185 185
-2.630411 2.344849 -52.414860 185 184 186
-2.651773 2.344849 -52.414860 183 185 186
-4.239105 2.527039 -56.487381 185 183 182
-4.262126 2.527039 -56.487381 182 183 181
-4.300254 2.508989 -56.083900 186 187 183
-3.642892 1.752786 -39.180370 191 192 190
-3.658860 1.752786 -39.180370 192 193 191
-17.451406 7.537734 -168.492401 244 247 245
-69.427223 21.953650 -490.734131 243 245 245
-69.627220 21.953650 -490.734131 243 245 245
-69.827225 21.953650 -490.734131 245 245 245
-70.027222 21.953650 -490.734131 245 245 245
-70.227219 21.953650 -490.734131 245 245 245
-70.427223 21.953650 -490.734131 245 245 245
-70.627220 21.953650 -490.734131 245 245 245
-62.957531 19.514355 -436.208130 245 245 245
-71.427223 21.953650 -490.734131 245 246 244
-71.627220 21.953650 -490.734131 245 246 244
-65.297478 19.957863 -446.121948 245 246 244
-80.827225 21.953650 -490.734131 243 243 243
-81.027222 21.953650 -490.734131 241 243 243
-73.842926 19.957863 -446.121948 241 243 243
-4.299757 1.008204 -22.536585 239 241 241
-4.308942 1.008204 -22.536585 240 242 242
-4.318127 1.008204 -22.536585 239 241 241
-4.314927 1.005319 -22.472084 239 241 241
-4.324086 1.005319 -22.472084 240 242 242
-4.335726 1.005895 -22.484955 239 241 241
-4.344890 1.005895 -22.484955 240 242 242
-4.354053 1.005895 -22.484955 245 247 247
1.912620 0.937657 -21.152332 189 189 189
1.903999 0.937657 -21.152332 190 190 190
1.895378 0.937657 -21.152332 190 190 190
-0.249297 3.799764 -85.717751 188 186 186
-0.284853 3.808079 -85.905319 187 187 187
-0.319166 3.799764 -85.717751 187 186 190
-0.387343 3.783243 -85.345070 188 186 186
-0.422126 3.783243 -85.345070 188 186 186
-0.456908 3.783243 -85.345070 186 185 187
-0.491691 3.783243 -85.345070 186 185 187
-0.526474 3.783243 -85.345070 186 185 187
-0.561256 3.783243 -85.345070 186 185 187
-0.596039 3.783243 -85.345070 187 185 185
-0.630821 3.783243 -85.345070 180 183 188
-0.665604 3.783243 -85.345070 149 159 176
-0.700387 3.783243 -85.345070 99 116 142
-0.735169 3.783243 -85.345070 82 102 137
-0.769952 3.783243 -85.345070 78 101 139
-0.804734 3.783243 -85.345070 73 95 131
-0.839517 3.783243 -85.345070 93 109 138
-0.874300 3.783243 -85.345070 162 168 181
-0.909082 3.783243 -85.345070 181 180 184
-0.943865 3.783243 -85.345070 187 183 188
-0.978648 3.783243 -85.345070 186 183 185
-1.013430 3.783243 -85.345070 184 184 184
-1.048213 3.783243 -85.345070 182 184 184
-1.152561 3.783243 -85.345070 185 186 184
-1.187343 3.783243 -85.345070 183 186 184
-1.222126 3.783243 -85.345070 182 184 184
-0.852682 1.402330 -31.634754 180 183 181
-0.865574 1.402330 -31.634754 175 178 176
-0.878467 1.402330 -31.634754 149 150 148
-0.891360 1.402330 -31.634754 120 118 117
-0.904253 1.402330 -31.634754 104 100 99
-0.917146 1.402330 -31.634754 87 83 82
-0.930039 1.402330 -31.634754 90 86 85
-0.942931 1.402330 -31.634754 146 144 144
-0.955824 1.402330 -31.634754 184 182 182
-0.968717 1.402330 -31.634754 184 184 184
-0.981610 1.402330 -31.634754 185 185 185
-0.994503 1.402330 -31.634754 184 184 184
-1.007396 1.402330 -31.634754 185 185 185
-1.020288 1.402330 -31.634754 186 186 186
-1.033181 1.402330 -31.634754 184 184 184
-1.046074 1.402330 -31.634754 185 183 183
-1.059821 1.403461 -31.660267 185 183 183
-1.071860 1.402330 -31.634754 186 184 184
-1.085627 1.403461 -31.660267 187 185 185
-2.160451 2.323487 -52.414860 186 187 185
-2.178904 2.320389 -52.344975 186 187 185
-2.194386 2.314218 -52.205757 188 186 186
-2.206858 2.305022 -51.998318 188 186 186
-2.231005 2.308079 -52.067284 186 186 186
-2.255216 2.311145 -52.136429 186 186 186
-2.279492 2.314218 -52.205757 190 185 186
-2.300768 2.314218 -52.205757 188 186 186
-2.322045 2.314218 -52.205757 187 185 185
-2.340210 2.311145 -52.136429 187 187 187
-2.361458 2.311145 -52.136429 186 187 185
-2.382706 2.311145 -52.136429 187 185 184
-2.400766 2.308079 -52.067284 191 184 181
-2.418779 2.305022 -51.998318 190 166 166
-2.436743 2.301974 -51.929539 176 120 125
-2.457907 2.301974 -51.929539 166 94 100
-2.485647 2.308079 -52.067284 169 91 98
-2.510196 2.311145 -52.136429 176 113 115
-2.531445 2.311145 -52.136429 193 161 162
-2.552693 2.311145 -52.136429 193 181 179
-2.573941 2.311145 -52.136429 189 183 184
-2.605571 2.320389 -52.344975 186 186 186
-2.630411 2.323487 -52.414860 185 184 186
-2.651773 2.323487 -52.414860 182 184 185
-4.216083 2.504017 -56.487381 185 183 182
-4.239105 2.504017 -56.487381 185 183 182
-4.285148 2.504017 -56.487381 192 193 191
-4.301980 2.500420 -56.406223 213 214 210
-4.300254 2.486131 -56.083900 189 190 186
-3.646531 1.738553 -39.219509 190 191 189
-3.658860 1.736818 -39.180370 191 192 190
-3.674828 1.736818 -39.180370 190 191 189
-17.451406 7.469064 -168.492401 243 246 244
-69.427223 21.753651 -490.734131 243 245 245
-69.627220 21.753651 -490.734131 243 245 245
-69.827225 21.753651 -490.734131 245 245 245
-70.027222 21.753651 -490.734131 245 245 245
-70.227219 21.753651 -490.734131 245 245 245
-70.427223 21.753651 -490.734131 245 245 245
-70.627220 21.753651 -490.734131 245 245 245
-62.957531 19.336578 -436.208130 245 245 245
-71.427223 21.753651 -490.734131 245 246 244
-71.627220 21.753651 -490.734131 245 246 244
-65.297478 19.776045 -446.121948 245 246 244
-80.827225 21.753651 -490.734131 243 243 243
-81.027222 21.753651 -490.734131 241 243 243
-73.842926 19.776045 -446.121948 241 243 243
-4.297291 0.998446 -22.523655 239 241 241
-4.308942 0.999020 -22.536585 240 242 242
-4.318127 0.999020 -22.536585 239 241 241
-4.314927 0.996160 -22.472084 239 241 241
-4.324086 0.996160 -22.472084 240 242 242
-4.335726 0.996731 -22.484955 239 241 241
-4.344890 0.996731 -22.484955 240 242 242
-4.354053 0.996731 -22.484955 245 247 247
1.912620 0.929037 -21.152332 190 190 190
1.903999 0.929037 -21.152332 190 190 190
1.895378 0.929037 -21.152332 190 190 190
-0.249297 3.764830 -85.717751 188 186 186
-0.284231 3.764830 -85.717751 186 186 186
-0.319166 3.764830 -85.717751 185 184 188
-0.387343 3.748461 -85.345070 187 185 185
-0.422126 3.748461 -85.345070 187 185 185
-0.456908 3.748461 -85.345070 185 184 186
-0.490624 3.740330 -85.159935 185 184 186
-0.526474 3.748461 -85.345070 187 185 185
-0.561256 3.748461 -85.345070 187 185 185
-0.596039 3.748461 -85.345070 187 185 185
-0.630821 3.748461 -85.345070 182 185 190
-0.665604 3.748461 -85.345070 151 161 178
-0.700387 3.748461 -85.345070 102 119 145
-0.735169 3.748461 -85.345070 80 102 137
-0.769952 3.748461 -85.345070 79 102 140
-0.804734 3.748461 -85.345070 74 96 132
-0.839517 3.748461 -85.345070 99 115 144
-0.874300 3.748461 -85.345070 164 170 183
-0.909082 3.748461 -85.345070 181 182 186
-0.943865 3.748461 -85.345070 186 182 187
-0.978648 3.748461 -85.345070 187 184 186
-1.011232 3.740330 -85.159935 185 185 185
-1.045939 3.740330 -85.159935 183 185 185
-1.152561 3.748461 -85.345070 186 187 185
-1.187343 3.748461 -85.345070 184 187 185
-1.222126 3.748461 -85.345070 183 185 185
-0.852682 1.389438 -31.634754 182 183 181
-0.865574 1.389438 -31.634754 179 177 176
-0.878467 1.389438 -31.634754 151 149 148
-0.891360 1.389438 -31.634754 119 115 114
-0.904253 1.389438 -31.634754 100 96 95
-0.917146 1.389438 -31.634754 84 79 80
-0.930039 1.389438 -31.634754 89 84 85
-0.942931 1.389438 -31.634754 147 145 145
-0.955824 1.389438 -31.634754 184 182 182
-0.968717 1.389438 -31.634754 183 183 183
-0.981610 1.389438 -31.634754 185 185 185
-0.994503 1.389438 -31.634754 185 185 185
-1.007396 1.389438 -31.634754 186 186 186
-1.020288 1.389438 -31.634754 186 186 186
-1.032349 1.388319 -31.609283 185 185 185
-1.046074 1.389438 -31.634754 183 183 183
-1.058967 1.389438 -31.634754 183 183 183
-1.071860 1.389438 -31.634754 184 184 184
-1.085627 1.390558 -31.660267 184 184 184
-2.160451 2.302125 -52.414860 185 186 184
-2.178904 2.299056 -52.344975 185 186 184
-2.194386 2.292942 -52.205757 187 185 185
-2.206858 2.283830 -51.998318 188 186 186
-2.231005 2.286860 -52.067284 186 186 186
-2.255216 2.289896 -52.136429 186 186 186
-2.279492 2.292942 -52.205757 189 184 185
-2.300768 2.292942 -52.205757 187 185 185
-2.322045 2.292942 -52.205757 185 183 183
-2.340210 2.289896 -52.136429 185 185 185
-2.361458 2.289896 -52.136429 185 186 184
-2.382706 2.289896 -52.136429 187 185 184
-2.400766 2.286860 -52.067284 191 184 181
-2.418779 2.283830 -51.998318 190 166 166
-2.436743 2.280809 -51.929539 175 119 124
-2.457907 2.280809 -51.929539 165 93 99
-2.485647 2.286860 -52.067284 170 92 99
-2.510196 2.289896 -52.136429 176 113 115
-2.531445 2.289896 -52.136429 193 161 162
-2.552693 2.289896 -52.136429 195 183 181
-2.573941 2.289896 -52.136429 191 185 186
-2.605571 2.299056 -52.344975 187 187 187
-2.630411 2.302125 -52.414860 185 185 185
-2.651773 2.302125 -52.414860 182 184 184
-4.210025 2.477431 -56.406223 185 183 183
-4.239105 2.480996 -56.487381 186 184 184
-4.262126 2.480996 -56.487381 185 186 184
-4.285148 2.480996 -56.487381 191 192 190
-4.301980 2.477431 -56.406223 212 213 211
-4.300254 2.463274 -56.083900 193 194 192
-3.646531 1.722569 -39.219509 193 191 190
-3.662515 1.722569 -39.219509 192 191 187
-3.674828 1.720850 -39.180370 192 191 187
-18.211824 7.909596 -180.085922 244 247 245
-17.451406 7.400395 -168.492401 245 246 244
-69.427223 21.553650 -490.734131 243 245 245
-69.627220 21.553650 -490.734131 243 245 245
-69.827225 21.553650 -490.734131 245 245 245
-70.027222 21.553650 -490.734131 245 245 245
-70.227219 21.553650 -490.734131 245 245 245
-70.427223 21.553650 -490.734131 245 245 245
-70.627220 21.553650 -490.734131 245 245 245
-62.957531 19.158800 -436.208130 245 245 245
-71.427223 21.553650 -490.734131 245 246 244
-71.627220 21.553650 -490.734131 245 246 244
-65.297478 19.594227 -446.121948 245 246 244
-80.827225 21.553650 -490.734131 243 243 243
-81.027222 21.553650 -490.734131 241 243 243
-73.842926 19.594227 -446.121948 241 243 243
-4.297291 0.989267 -22.523655 239 241 241
-4.306470 0.989267 -22.523655 239 241 241
-4.315650 0.989267 -22.523655 239 241 241
-4.312459 0.986437 -22.459229 239 241 241
-4.324086 0.987002 -22.472084 239 241 241
-4.335726 0.987567 -22.484955 239 241 241
-4.344890 0.987567 -22.484955 240 242 242
-4.354053 0.987567 -22.484955 245 247 247
1.912620 0.920416 -21.152332 191 191 191
1.903999 0.920416 -21.152332 191 191 191
1.895378 0.920416 -21.152332 191 191 191
1.886758 0.920416 -21.152332 191 191 191
-0.249297 3.729895 -85.717751 188 186 186
-0.284231 3.729895 -85.717751 185 185 185
-0.386503 3.705622 -85.159935 187 185 185
-0.421210 3.705622 -85.159935 187 185 184
-0.455917 3.705622 -85.159935 188 186 186
-0.490624 3.705622 -85.159935 186 185 187
-0.525332 3.705622 -85.159935 188 186 186
-0.560039 3.705622 -85.159935 187 185 185
-0.594746 3.705622 -85.159935 186 184 184
-0.629453 3.705622 -85.159935 181 184 189
-0.664160 3.705622 -85.159935 150 160 177
-0.698867 3.705622 -85.159935 100 117 143
-0.733575 3.705622 -85.159935 81 103 138
-0.768282 3.705622 -85.159935 79 105 142
-0.802989 3.705622 -85.159935 75 99 135
-0.837696 3.705622 -85.159935 105 123 152
-0.872403 3.705622 -85.159935 165 173 186
-0.907110 3.705622 -85.159935 184 185 189
-0.941817 3.705622 -85.159935 186 182 187
-0.976525 3.705622 -85.159935 187 184 186
-1.011232 3.705622 -85.159935 186 186 186
-1.045939 3.705622 -85.159935 183 185 185
-1.152561 3.713678 -85.345070 186 187 185
-1.222126 3.713678 -85.345070 183 185 185
-0.852682 1.376545 -31.634754 184 182 181
-0.865574 1.376545 -31.634754 181 177 176
-0.877760 1.375436 -31.609283 153 149 148
-0.891360 1.376545 -31.634754 116 112 111
-0.904253 1.376545 -31.634754 99 95 94
-0.917146 1.376545 -31.634754 84 79 80
-0.930039 1.376545 -31.634754 88 83 84
-0.942931 1.376545 -31.634754 145 143 143
-0.955824 1.376545 -31.634754 183 181 181
-0.968717 1.376545 -31.634754 184 184 184
-0.981610 1.376545 -31.634754 185 185 185
-0.994503 1.376545 -31.634754 185 185 185
-1.007396 1.376545 -31.634754 186 186 186
-1.019467 1.375436 -31.609283 186 186 186
-1.032349 1.375436 -31.609283 184 184 184
-1.046074 1.376545 -31.634754 184 184 184
-1.058967 1.376545 -31.634754 184 184 184
-1.071860 1.376545 -31.634754 184 184 184
-1.084753 1.376545 -31.634754 184 184 184
-1.099417 1.378767 -31.685820 185 186 184
-1.112331 1.378767 -31.685820 185 186 184
-2.160451 2.280764 -52.414860 184 185 183
-2.178904 2.277723 -52.344975 184 185 183
-2.194386 2.271665 -52.205757 187 185 185
-2.206858 2.262638 -51.998318 187 185 185
-2.231005 2.265639 -52.067284 186 186 186
-2.255216 2.268648 -52.136429 186 186 186
-2.300768 2.271665 -52.205757 186 184 184
-2.322045 2.271665 -52.205757 187 185 185
-2.340210 2.268648 -52.136429 186 186 186
-2.361458 2.268648 -52.136429 184 185 183
-2.382706 2.268648 -52.136429 185 183 182
-2.400766 2.265639 -52.067284 190 183 180
-2.418779 2.262638 -51.998318 190 166 166
-2.436743 2.259645 -51.929539 176 120 125
-2.457907 2.259645 -51.929539 167 95 101
-2.485647 2.265639 -52.067284 169 91 98
-2.510196 2.268648 -52.136429 176 113 115
-2.531445 2.268648 -52.136429 193 161 162
-2.552693 2.268648 -52.136429 195 183 181
-2.573941 2.268648 -52.136429 191 186 185
-2.605571 2.277723 -52.344975 186 186 186
-2.630411 2.280764 -52.414860 184 184 184
-2.651773 2.280764 -52.414860 182 184 184
-4.210025 2.454443 -56.406223 185 183 183
-4.239105 2.457974 -56.487381 186 184 184
-4.262126 2.457974 -56.487381 185 186 184
-4.285148 2.457974 -56.487381 191 192 190
-4.301980 2.454443 -56.406223 211 212 210
-4.300254 2.440417 -56.083900 195 196 194
-3.646531 1.706585 -39.219509 193 191 190
-3.662515 1.706585 -39.219509 192 191 187
-3.678499 1.706585 -39.219509 192 191 187
-18.211824 7.836202 -180.085922 244 247 245
-18.285219 7.836202 -180.085922 244 247 245
-18.358614 7.836202 -180.085922 244 247 245
-18.432009 7.836202 -180.085922 244 247 245
-18.505402 7.836202 -180.085922 244 247 245
-69.427223 21.353649 -490.734131 243 245 245
-69.627220 21.353649 -490.734131 243 245 245
-69.827225 21.353649 -490.734131 245 245 245
-70.027222 21.353649 -490.734131 245 245 245
-70.227219 21.353649 -490.734131 245 245 245
-70.427223 21.353649 -490.734131 245 245 245
-70.627220 21.353649 -490.734131 245 245 245
-62.957531 18.981022 -436.208130 245 245 245
-71.427223 21.353649 -490.734131 245 246 244
-71.627220 21.353649 -490.734131 244 245 243
-65.297478 19.412409 -446.121948 244 245 243
-80.827225 21.353649 -490.734131 243 243 243
-81.027222 21.353649 -490.734131 241 243 243
-73.842926 19.412409 -446.121948 241 243 243
-4.297291 0.980087 -22.523655 239 241 241
-4.306470 0.980087 -22.523655 239 241 241
-4.315650 0.980087 -22.523655 239 241 241
-4.312459 0.977284 -22.459229 239 241 241
-4.324086 0.977843 -22.472084 239 241 241
-4.335726 0.978403 -22.484955 239 241 241
-4.344890 0.978403 -22.484955 240 242 242
-4.354053 0.978403 -22.484955 245 247 247
1.912620 0.911795 -21.152332 190 192 192
1.903999 0.911795 -21.152332 190 192 192
1.895378 0.911795 -21.152332 191 193 193
1.886758 0.911795 -21.152332 190 192 192
-0.385666 3.662970 -84.975609 188 186 186
-0.421210 3.670915 -85.159935 188 186 185
-0.455917 3.670915 -85.159935 189 187 187
-0.489562 3.662970 -84.975609 189 187 187
-0.524194 3.662970 -84.975609 189 187 187
-0.560039 3.670915 -85.159935 188 186 186
-0.594746 3.670915 -85.159935 186 184 184
-0.629453 3.670915 -85.159935 181 184 189
-0.664160 3.670915 -85.159935 149 159 176
-0.698867 3.670915 -85.159935 99 116 142
-0.733575 3.670915 -85.159935 82 107 141
-0.768282 3.670915 -85.159935 80 106 143
-0.802989 3.670915 -85.159935 77 101 137
-0.837696 3.670915 -85.159935 106 124 153
-0.872403 3.670915 -85.159935 164 172 185
-0.907110 3.670915 -85.159935 181 184 188
-0.941817 3.670915 -85.159935 185 184 188
-0.976525 3.670915 -85.159935 186 183 185
-1.009043 3.662970 -84.975609 185 185 185
-1.043675 3.662970 -84.975609 183 185 185
-1.222126 3.678896 -85.345070 184 184 184
-0.839113 1.362554 -31.609283 189 184 185
-0.851995 1.362554 -31.609283 187 181 182
-0.864878 1.362554 -31.609283 181 175 176
-0.877760 1.362554 -31.609283 152 146 147
-0.890642 1.362554 -31.609283 113 109 108
-0.903525 1.362554 -31.609283 101 97 96
-0.916407 1.362554 -31.609283 86 81 82
-0.929290 1.362554 -31.609283 85 80 81
-0.942172 1.362554 -31.609283 140 138 138
-0.955055 1.362554 -31.609283 182 180 180
-0.967937 1.362554 -31.609283 184 184 184
-0.980820 1.362554 -31.609283 185 185 185
-0.993702 1.362554 -31.609283 185 184 186
-1.006584 1.362554 -31.609283 185 184 186
-1.019467 1.362554 -31.609283 185 185 185
-1.031519 1.361458 -31.583855 184 184 184
-1.045232 1.362554 -31.609283 184 184 184
-1.058967 1.363652 -31.634754 185 185 185
-1.070997 1.362554 -31.609283 185 185 185
-1.084753 1.363652 -31.634754 185 185 185
-1.099417 1.365853 -31.685820 185 185 185
-1.112331 1.365853 -31.685820 185 185 185
-2.160451 2.259402 -52.414860 185 186 184
-2.178904 2.256389 -52.344975 185 186 184
-2.194386 2.250388 -52.205757 187 185 185
-2.206858 2.241446 -51.998318 187 185 185
-2.231005 2.244419 -52.067284 186 186 186
-2.255216 2.247400 -52.136429 186 186 186
-2.300768 2.250388 -52.205757 187 185 185
-2.322045 2.250388 -52.205757 188 186 186
-2.340210 2.247400 -52.136429 187 187 187
-2.361458 2.247400 -52.136429 184 185 183
-2.382706 2.247400 -52.136429 185 183 182
-2.400766 2.244419 -52.067284 188 183 182
-2.418779 2.241446 -51.998318 192 168 170
-2.436743 2.238482 -51.929539 178 122 127
-2.485647 2.244419 -52.067284 170 92 99
-2.510196 2.247400 -52.136429 175 112 114
-2.531445 2.247400 -52.136429 192 160 161
-2.552693 2.247400 -52.136429 194 182 180
-2.573941 2.247400 -52.136429 190 185 184
-2.605571 2.256389 -52.344975 184 185 183
-2.630411 2.259402 -52.414860 184 184 184
-2.651773 2.259402 -52.414860 182 184 184
-4.210025 2.431454 -56.406223 184 184 184
-4.239105 2.434952 -56.487381 183 183 183
-4.262126 2.434952 -56.487381 185 185 185
-4.285148 2.434952 -56.487381 191 191 191
-4.301980 2.431454 -56.406223 210 211 209
-4.300254 2.417560 -56.083900 195 196 194
-4.298548 2.403824 -55.765244 186 187 185
-4.321275 2.403824 -55.765244 186 187 185
-4.344002 2.403824 -55.765244 187 188 186
-3.637815 1.693986 -39.298027 193 191 190
-3.646531 1.690601 -39.219509 192 190 189
-3.662515 1.690601 -39.219509 192 191 187
-3.678499 1.690601 -39.219509 192 191 187
-18.295750 7.798581 -180.915802 244 247 245
-18.285219 7.762807 -180.085922 244 247 245
-18.358614 7.762807 -180.085922 244 247 245
-18.432009 7.762807 -180.085922 244 247 245
-18.505402 7.762807 -180.085922 244 247 245
-69.427223 21.153650 -490.734131 243 245 245
-69.627220 21.153650 -490.734131 243 245 245
-69.827225 21.153650 -490.734131 245 245 245
-70.027222 21.153650 -490.734131 245 245 245
-70.227219 21.153650 -490.734131 245 245 245
-70.427223 21.153650 -490.734131 245 245 245
-71.427223 21.153650 -490.734131 245 246 244
-71.627220 21.153650 -490.734131 244 245 243
-65.297478 19.230591 -446.121948 244 245 243
-80.827225 21.153650 -490.734131 243 243 243
-81.027222 21.153650 -490.734131 241 243 243
-73.842926 19.230591 -446.121948 241 243 243
-4.297291 0.970908 -22.523655 239 241 241
-4.306470 0.970908 -22.523655 239 241 241
-4.315650 0.970908 -22.523655 239 241 241
-4.312459 0.968130 -22.459229 239 241 241
-4.324086 0.968685 -22.472084 239 241 241
-4.335726 0.969239 -22.484955 239 241 241
-4.344890 0.969239 -22.484955 240 242 242
-4.354053 0.969239 -22.484955 245 247 247
1.912620 0.903175 -21.152332 190 192 192
1.903999 0.903175 -21.152332 191 193 193
1.895378 0.903175 -21.152332 192 194 194
1.886758 0.903175 -21.152332 191 193 193
-0.317778 3.644113 -85.345070 186 185 187
-0.385666 3.628338 -84.975609 189 187 187
-0.420298 3.628338 -84.975609 191 187 186
-0.454930 3.628338 -84.975609 187 185 185
-0.489562 3.628338 -84.975609 188 186 186
-0.524194 3.628338 -84.975609 189 187 187
-0.558827 3.628338 -84.975609 188 186 186
-0.593459 3.628338 -84.975609 187 185 185
-0.628091 3.628338 -84.975609 182 185 190
-0.662723 3.628338 -84.975609 151 161 178
-0.697355 3.628338 -84.975609 101 118 144
-0.731987 3.628338 -84.975609 84 109 143
-0.766619 3.628338 -84.975609 79 106 143
-0.801251 3.628338 -84.975609 75 101 137
-0.835883 3.628338 -84.975609 102 120 149
-0.870515 3.628338 -84.975609 159 168 181
-0.905147 3.628338 -84.975609 179 182 186
-0.939779 3.628338 -84.975609 187 186 190
-0.974411 3.628338 -84.975609 184 183 185
-1.009043 3.628338 -84.975609 186 186 186
-1.041421 3.620501 -84.792076 183 185 185
-0.812693 1.348586 -31.583855 184 182 182
-0.839113 1.349671 -31.609283 189 184 185
-0.851995 1.349671 -31.609283 186 181 182
-0.864878 1.349671 -31.609283 180 175 176
-0.877760 1.349671 -31.609283 150 145 146
-0.890642 1.349671 -31.609283 111 107 106
-0.903525 1.349671 -31.609283 103 99 98
-0.916407 1.349671 -31.609283 89 84 85
-0.929290 1.349671 -31.609283 82 77 78
-0.942172 1.349671 -31.609283 135 133 133
-0.955055 1.349671 -31.609283 179 177 177
-0.967937 1.349671 -31.609283 184 184 184
-0.980030 1.348586 -31.583855 183 183 183
-0.993702 1.349671 -31.609283 185 184 186
-1.006584 1.349671 -31.609283 185 184 186
-1.018647 1.348586 -31.583855 184 184 184
-1.031519 1.348586 -31.583855 184 184 184
-1.045232 1.349671 -31.609283 184 184 184
-1.058114 1.349671 -31.609283 186 186 186
-1.070997 1.349671 -31.609283 186 186 186
-1.084753 1.350759 -31.634754 185 185 185
-1.099417 1.352939 -31.685820 185 185 185
-1.112331 1.352939 -31.685820 185 185 185
-1.125244 1.352939 -31.685820 182 184 184
-2.160451 2.238040 -52.414860 185 188 186
-2.178904 2.235056 -52.344975 187 188 186
-2.191471 2.226151 -52.136429 188 186 186
-2.206858 2.220254 -51.998318 188 186 186
-2.231005 2.223199 -52.067284 186 186 186
-2.255216 2.226151 -52.136429 186 186 186
-2.300768 2.229112 -52.205757 188 186 186
-2.322045 2.229112 -52.205757 187 187 187
-2.340210 2.226151 -52.136429 187 187 187
-2.361458 2.226151 -52.136429 185 186 184
-2.382706 2.226151 -52.136429 187 185 184
-2.400766 2.223199 -52.067284 190 185 184
-2.418779 2.220254 -51.998318 192 170 172
-2.436743 2.217317 -51.929539 180 124 129
-2.485647 2.223199 -52.067284 171 93 100
-2.510196 2.226151 -52.136429 177 114 116
-2.531445 2.226151 -52.136429 193 161 162
-2.552693 2.226151 -52.136429 194 182 180
-2.573941 2.226151 -52.136429 190 185 184
-2.605571 2.235056 -52.344975 185 186 184
-2.630411 2.238040 -52.414860 184 184 184
-2.651773 2.238040 -52.414860 184 186 186
-4.210025 2.408466 -56.406223 186 186 186
-4.233014 2.408466 -56.406223 183 183 183
-4.262126 2.411931 -56.487381 184 184 184
-4.285148 2.411931 -56.487381 192 192 192
-4.301980 2.408466 -56.406223 211 212 210
-4.300254 2.394703 -56.083900 195 196 194
-4.298548 2.381097 -55.765244 185 186 184
-4.321275 2.381097 -55.765244 186 187 185
-4.344002 2.381097 -55.765244 187 188 186
-3.637815 1.677970 -39.298027 191 189 188
-3.650178 1.676292 -39.258732 190 188 187
-3.666178 1.676292 -39.258732 192 191 187
-18.295750 7.724848 -180.915802 244 247 245
-18.369482 7.724848 -180.915802 244 247 245
-18.443214 7.724848 -180.915802 244 247 245
-18.516949 7.724848 -180.915802 244 247 245
-18.590681 7.724848 -180.915802 244 247 245
-69.427223 20.953650 -490.734131 243 245 245
-69.627220 20.953650 -490.734131 243 245 245
-69.827225 20.953650 -490.734131 245 245 245
-70.027222 20.953650 -490.734131 245 245 245
-70.227219 20.953650 -490.734131 245 245 245
-70.427223 20.953650 -490.734131 245 245 245
-71.427223 20.953650 -490.734131 245 246 244
-71.627220 20.953650 -490.734131 244 245 243
-65.297478 19.048773 -446.121948 244 245 243
-80.827225 20.953650 -490.734131 243 243 243
-81.027222 20.953650 -490.734131 241 243 243
-73.842926 19.048773 -446.121948 241 243 243
-4.623145 1.054935 -24.706564 239 241 241
-4.306470 0.961728 -22.523655 240 242 242
-4.313175 0.961177 -22.510740 239 241 241
-4.312459 0.958977 -22.459229 239 241 241
-4.324086 0.959526 -22.472084 239 241 241
-4.335726 0.960076 -22.484955 239 241 241
-4.344890 0.960076 -22.484955 240 242 242
-4.354053 0.960076 -22.484955 246 248 248
1.912620 0.894554 -21.152332 192 194 194
1.903999 0.894554 -21.152332 192 194 194
1.895378 0.894554 -21.152332 192 194 194
1.886758 0.894554 -21.152332 191 193 193
-0.248213 3.609330 -85.345070 188 186 185
-0.282995 3.609330 -85.345070 187 187 187
-0.317778 3.609330 -85.345070 187 186 188
-0.420298 3.593706 -84.975609 189 185 184
-0.454930 3.593706 -84.975609 187 185 185
-0.488505 3.585944 -84.792076 189 187 187
-0.523062 3.585944 -84.792076 190 188 188
-0.558827 3.593706 -84.975609 188 186 186
-0.593459 3.593706 -84.975609 188 186 186
-0.628091 3.593706 -84.975609 181 184 189
-0.662723 3.593706 -84.975609 150 160 177
-0.697355 3.593706 -84.975609 101 118 144
-0.731987 3.593706 -84.975609 82 107 141
-0.764963 3.585944 -84.792076 81 108 145
-0.799520 3.585944 -84.792076 78 104 140
-0.834077 3.585944 -84.792076 97 115 144
-0.870515 3.593706 -84.975609 159 168 181
-0.905147 3.593706 -84.975609 179 182 186
-0.939779 3.593706 -84.975609 185 184 188
-0.974411 3.593706 -84.975609 184 183 185
-1.009043 3.593706 -84.975609 186 186 186
-1.041421 3.585944 -84.792076 182 184 184
-0.799821 1.335714 -31.583855 187 185 184
-0.812693 1.335714 -31.583855 184 184 184
-0.825565 1.335714 -31.583855 184 184 184
-0.838438 1.335714 -31.583855 183 183 183
-0.851310 1.335714 -31.583855 180 180 180
-0.864182 1.335714 -31.583855 175 175 175
-0.877054 1.335714 -31.583855 145 145 145
-0.889926 1.335714 -31.583855 112 110 109
-0.902798 1.335714 -31.583855 103 99 98
-0.915670 1.335714 -31.583855 87 82 83
-0.928542 1.335714 -31.583855 82 77 78
-0.941414 1.335714 -31.583855 129 127 127
-0.954286 1.335714 -31.583855 177 175 175
-0.967158 1.335714 -31.583855 184 184 184
-0.980030 1.335714 -31.583855 185 185 185
-0.992903 1.335714 -31.583855 183 183 183
-1.005775 1.335714 -31.583855 183 183 183
-1.018647 1.335714 -31.583855 184 184 184
-1.030690 1.334640 -31.558466 184 184 184
-1.044391 1.335714 -31.583855 184 184 184
-1.058114 1.336789 -31.609283 183 183 183
-1.070997 1.336789 -31.609283 184 184 184
-1.084753 1.337866 -31.634754 185 185 185
-1.098531 1.338945 -31.660267 187 184 186
-1.111434 1.338945 -31.660267 187 184 186
-2.160451 2.216678 -52.414860 184 186 186
-2.178904 2.213723 -52.344975 186 186 186
-2.191471 2.204903 -52.136429 188 186 186
-2.206858 2.199062 -51.998318 188 186 186
-2.231005 2.201979 -52.067284 186 186 186
-2.255216 2.204903 -52.136429 186 186 186
-2.300768 2.207835 -52.205757 188 186 186
-2.322045 2.207835 -52.205757 187 187 187
-2.340210 2.204903 -52.136429 186 188 188
-2.361458 2.204903 -52.136429 188 189 187
-2.382706 2.204903 -52.136429 189 187 186
-2.400766 2.201979 -52.067284 191 186 185
-2.418779 2.199062 -51.998318 194 172 174
-2.436743 2.196153 -51.929539 183 127 132
-2.485647 2.201979 -52.067284 172 94 101
-2.510196 2.204903 -52.136429 178 115 117
-2.531445 2.204903 -52.136429 194 163 164
-2.552693 2.204903 -52.136429 195 183 181
-2.573941 2.204903 -52.136429 189 184 183
-2.605571 2.213723 -52.344975 185 186 184
-2.630411 2.216678 -52.414860 186 186 186
-2.651773 2.216678 -52.414860 183 185 185
-4.210025 2.385477 -56.406223 186 186 186
-4.233014 2.385477 -56.406223 186 186 186
-4.285148 2.388909 -56.487381 192 192 192
-4.301980 2.385477 -56.406223 209 210 208
-4.300254 2.371846 -56.083900 196 197 195
-4.321275 2.358369 -55.765244 185 186 184
-4.344002 2.358369 -55.765244 186 187 185
-3.637815 1.661954 -39.298027 190 189 185
-3.650178 1.660292 -39.258732 190 189 185
-3.666178 1.660292 -39.258732 189 188 184
-18.295750 7.651115 -180.915802 244 246 246
-18.369482 7.651115 -180.915802 244 246 246
-18.443214 7.651115 -180.915802 244 246 246
-18.516949 7.651115 -180.915802 244 246 246
-18.590681 7.651115 -180.915802 244 246 246
-69.427223 20.753651 -490.734131 243 245 245
-69.627220 20.753651 -490.734131 242 244 244
-69.827225 20.753651 -490.734131 245 245 245
-70.027222 20.753651 -490.734131 245 245 245
-70.227219 20.753651 -490.734131 245 245 245
-70.427223 20.753651 -490.734131 245 245 245
-71.427223 20.753651 -490.734131 245 246 244
-71.627220 20.753651 -490.734131 245 246 244
-65.297478 18.866955 -446.121948 245 246 244
-80.827225 20.753651 -490.734131 243 243 243
-81.027222 20.753651 -490.734131 241 243 243
-73.842926 18.866955 -446.121948 241 243 243
-4.623145 1.044866 -24.706564 239 241 241
-4.304001 0.952002 -22.510740 240 242 242
-4.313175 0.952002 -22.510740 239 241 241
-4.312459 0.949824 -22.459229 239 241 241
-4.324086 0.950368 -22.472084 239 241 241
-4.335726 0.950912 -22.484955 239 241 241
-4.344890 0.950912 -22.484955 240 242 242
-4.354053 0.950912 -22.484955 246 248 248
1.912620 0.885933 -21.152332 192 194 194
1.903999 0.885933 -21.152332 192 194 194
1.895378 0.885933 -21.152332 192 194 194
1.886758 0.885933 -21.152332 191 193 193
-0.248213 3.574548 -85.345070 189 187 186
-0.282995 3.574548 -85.345070 187 187 187
-0.317778 3.574548 -85.345070 187 186 188
-0.420298 3.559074 -84.975609 187 185 184
-0.453948 3.551387 -84.792076 186 184 184
-0.488505 3.551387 -84.792076 188 186 186
-0.523062 3.551387 -84.792076 188 186 186
-0.557620 3.551387 -84.792076 187 185 185
-0.593459 3.559074 -84.975609 187 185 185
-0.628091 3.559074 -84.975609 182 185 190
-0.661291 3.551387 -84.792076 151 161 178
-0.695849 3.551387 -84.792076 101 121 146
-0.730406 3.551387 -84.792076 83 108 142
-0.764963 3.551387 -84.792076 80 107 144
-0.799520 3.551387 -84.792076 77 103 139
-0.834077 3.551387 -84.792076 99 117 146
-0.868635 3.551387 -84.792076 160 169 182
-0.903192 3.551387 -84.792076 179 182 186
-0.939779 3.559074 -84.975609 185 184 188
-0.974411 3.559074 -84.975609 185 184 186
-1.006864 3.551387 -84.792076 185 185 185
-1.041421 3.551387 -84.792076 183 185 185
-0.799821 1.322842 -31.583855 184 185 183
-0.812693 1.322842 -31.583855 184 184 184
-0.825565 1.322842 -31.583855 182 184 184
-0.838438 1.322842 -31.583855 181 183 183
-0.851310 1.322842 -31.583855 178 180 180
-0.864182 1.322842 -31.583855 171 176 175
-0.877054 1.322842 -31.583855 143 145 145
-0.889926 1.322842 -31.583855 110 108 107
-0.902798 1.322842 -31.583855 100 96 95
-0.915670 1.322842 -31.583855 86 81 82
-0.928542 1.322842 -31.583855 82 77 78
-0.941414 1.322842 -31.583855 130 128 128
-0.954286 1.322842 -31.583855 177 175 175
-0.967158 1.322842 -31.583855 182 182 182
-0.980030 1.322842 -31.583855 181 181 181
-0.992903 1.322842 -31.583855 183 183 183
-1.005775 1.322842 -31.583855 183 183 183
-1.017828 1.321778 -31.558466 184 184 184
-1.030690 1.321778 -31.558466 184 184 184
-1.044391 1.322842 -31.583855 184 184 184
-1.058114 1.323907 -31.609283 184 184 184
-1.070135 1.322842 -31.583855 184 184 184
-1.083879 1.323907 -31.609283 185 185 185
-1.098531 1.326042 -31.660267 189 184 186
-1.111434 1.326042 -31.660267 187 184 186
-1.124337 1.326042 -31.660267 184 183 187
-2.160451 2.195316 -52.414860 184 186 186
-2.176003 2.189470 -52.275272 185 185 185
-2.191471 2.183655 -52.136429 187 185 185
-2.206858 2.177870 -51.998318 188 186 186
-2.228050 2.177870 -51.998318 186 186 186
-2.255216 2.183655 -52.136429 186 186 186
-2.279492 2.186558 -52.205757 188 186 186
-2.300768 2.186558 -52.205757 189 187 187
-2.322045 2.186558 -52.205757 185 185 185
-2.340210 2.183655 -52.136429 185 187 187
-2.361458 2.183655 -52.136429 187 188 186
-2.382706 2.183655 -52.136429 188 186 185
-2.400766 2.180759 -52.067284 191 186 185
-2.418779 2.177870 -51.998318 194 172 174
-2.436743 2.174989 -51.929539 182 128 133
-2.457907 2.174989 -51.929539 172 100 106
-2.485647 2.180759 -52.067284 172 94 101
-2.510196 2.183655 -52.136429 178 115 117
-2.531445 2.183655 -52.136429 195 164 165
-2.552693 2.183655 -52.136429 194 185 182
-2.573941 2.183655 -52.136429 189 185 184
-2.630411 2.195316 -52.414860 185 187 187
-2.651773 2.195316 -52.414860 185 187 187
-1.896035 1.380598 -32.962830 167 172 181
-1.909469 1.380598 -32.962830 121 133 151
-4.210025 2.362489 -56.406223 186 186 186
-4.233014 2.362489 -56.406223 186 186 186
-4.256002 2.362489 -56.406223 184 184 184
-4.278991 2.362489 -56.406223 192 192 192
-4.301980 2.362489 -56.406223 209 210 208
-4.292451 2.332329 -55.686142 184 185 183
-4.315145 2.332329 -55.686142 185 186 184
-4.337841 2.332329 -55.686142 187 188 186
-3.640790 1.669332 -39.856579 190 189 185
-3.637815 1.645938 -39.298027 190 189 185
-3.650178 1.644292 -39.258732 189 188 184
-3.666178 1.644292 -39.258732 190 189 185
-18.380453 7.612463 -181.753387 244 246 246
-18.454527 7.612463 -181.753387 244 246 246
-18.528601 7.612463 -181.753387 244 246 246
-18.602674 7.612463 -181.753387 244 246 246
-18.676748 7.612463 -181.753387 244 246 246
-69.427223 20.553650 -490.734131 243 245 245
-69.627220 20.553650 -490.734131 242 244 244
-69.827225 20.553650 -490.734131 244 244 244
-70.027222 20.553650 -490.734131 244 244 244
-70.227219 20.553650 -490.734131 244 244 244
-70.427223 20.553650 -490.734131 244 244 244
-71.427223 20.553650 -490.734131 244 245 243
-71.627220 20.553650 -490.734131 245 246 244
-65.297478 18.685137 -446.121948 244 245 243
-80.827225 20.553650 -490.734131 243 243 243
-81.027222 20.553650 -490.734131 241 243 243
-73.842926 18.685137 -446.121948 241 243 243
-4.623145 1.034797 -24.706564 240 242 242
-4.313175 0.942828 -22.510740 239 241 241
-4.312459 0.940670 -22.459229 239 241 241
-4.324086 0.941209 -22.472084 239 241 241
-4.335726 0.941748 -22.484955 239 241 241
-4.344890 0.941748 -22.484955 240 242 242
-4.354053 0.941748 -22.484955 246 248 248
1.912620 0.877312 -21.152332 194 194 194
1.903999 0.877312 -21.152332 194 193 195
1.895378 0.877312 -21.152332 194 193 195
1.886758 0.877312 -21.152332 195 195 195
-0.248213 3.539765 -85.345070 190 188 187
-0.282995 3.539765 -85.345070 188 188 188
-0.317778 3.539765 -85.345070 187 186 188
-0.420298 3.524441 -84.975609 188 186 185
-0.454930 3.524441 -84.975609 187 185 185
-0.488505 3.516829 -84.792076 187 187 187
-0.523062 3.516829 -84.792076 188 186 186
-0.558827 3.524441 -84.975609 188 186 186
-0.593459 3.524441 -84.975609 188 186 185
-0.628091 3.524441 -84.975609 183 186 190
-0.662723 3.524441 -84.975609 152 163 177
-0.697355 3.524441 -84.975609 103 123 148
-0.731987 3.524441 -84.975609 84 109 143
-0.764963 3.516829 -84.792076 81 108 145
-0.799520 3.516829 -84.792076 78 104 140
-0.835883 3.524441 -84.975609 101 119 148
-0.870515 3.524441 -84.975609 163 172 185
-0.905147 3.524441 -84.975609 180 183 187
-0.939779 3.524441 -84.975609 184 183 187
-0.974411 3.524441 -84.975609 185 184 186
-1.009043 3.524441 -84.975609 183 183 183
-1.041421 3.516829 -84.792076 182 184 184
-0.799821 1.309969 -31.583855 182 185 183
-0.812693 1.309969 -31.583855 181 183 183
-0.825565 1.309969 -31.583855 180 185 184
-0.838438 1.309969 -31.583855 180 185 184
-0.851310 1.309969 -31.583855 177 182 181
-0.864182 1.309969 -31.583855 172 177 176
-0.877054 1.309969 -31.583855 144 146 146
-0.889926 1.309969 -31.583855 110 106 105
-0.902798 1.309969 -31.583855 97 92 91
-0.915670 1.309969 -31.583855 82 78 77
-0.928542 1.309969 -31.583855 79 75 74
-0.941414 1.309969 -31.583855 129 127 127
-0.954286 1.309969 -31.583855 179 177 177
-0.967158 1.309969 -31.583855 184 184 184
-0.980030 1.309969 -31.583855 183 183 183
-0.992903 1.309969 -31.583855 183 183 183
-1.005775 1.309969 -31.583855 183 183 183
-1.017828 1.308916 -31.558466 184 184 184
-1.030690 1.308916 -31.558466 184 184 184
-1.044391 1.309969 -31.583855 185 185 185
-1.058114 1.311024 -31.609283 185 185 185
-1.070135 1.309969 -31.583855 185 185 185
-1.083879 1.311024 -31.609283 186 186 186
-1.098531 1.313139 -31.660267 189 184 186
-1.111434 1.313139 -31.660267 186 183 185
-1.134495 1.309969 -31.583855 183 182 186
-2.160451 2.173954 -52.414860 185 185 185
-2.176003 2.168165 -52.275272 185 185 185
-2.191471 2.162406 -52.136429 187 185 185
-2.206858 2.156678 -51.998318 188 186 186
-2.228050 2.156678 -51.998318 186 186 186
-2.255216 2.162406 -52.136429 186 186 186
-2.279492 2.165282 -52.205757 188 186 186
-2.300768 2.165282 -52.205757 189 187 187
-2.318961 2.162406 -52.136429 186 186 186
-2.340210 2.162406 -52.136429 185 187 187
-2.358326 2.159539 -52.067284 186 186 186
-2.382706 2.162406 -52.136429 187 185 185
-2.400766 2.159539 -52.067284 190 185 184
-2.418779 2.156678 -51.998318 192 170 172
-2.436743 2.153825 -51.929539 180 126 131
-2.457907 2.153825 -51.929539 168 98 104
-2.485647 2.159539 -52.067284 172 95 102
-2.506867 2.159539 -52.067284 177 117 118
-2.528087 2.159539 -52.067284 196 165 166
-2.552693 2.162406 -52.136429 195 186 183
-2.573941 2.162406 -52.136429 190 186 185
-2.630411 2.173954 -52.414860 186 188 188
-2.648237 2.171056 -52.344975 185 187 187
-1.882601 1.367164 -32.962830 184 186 187
-1.896035 1.367164 -32.962830 169 174 183
-1.909469 1.367164 -32.962830 122 134 152
-1.922903 1.367164 -32.962830 86 107 138
-4.203985 2.336143 -56.325294 187 187 187
-4.233014 2.339500 -56.406223 187 187 187
-4.256002 2.339500 -56.406223 187 185 185
-4.278991 2.339500 -56.406223 194 192 192
-4.301980 2.339500 -56.406223 212 210 209
-4.292451 2.309634 -55.686142 186 184 183
-4.315145 2.309634 -55.686142 188 186 185
-4.337841 2.309634 -55.686142 190 188 187
-3.640790 1.653088 -39.856579 188 187 183
-3.637815 1.629922 -39.298027 189 189 183
-3.653831 1.629922 -39.298027 188 188 182
-3.666178 1.628292 -39.258732 190 189 185
-18.380453 7.538389 -181.753387 244 246 246
-18.454527 7.538389 -181.753387 244 246 246
-18.528601 7.538389 -181.753387 244 246 246
-18.602674 7.538389 -181.753387 244 246 246
-18.676748 7.538389 -181.753387 244 246 246
-69.427223 20.353649 -490.734131 242 244 244
-69.627220 20.353649 -490.734131 243 245 245
-69.827225 20.353649 -490.734131 244 244 244
-70.027222 20.353649 -490.734131 244 244 244
-70.227219 20.353649 -490.734131 244 244 244
-71.427223 20.353649 -490.734131 244 245 243
-71.627220 20.353649 -490.734131 245 246 244
-65.297478 18.503319 -446.121948 245 246 244
-80.827225 20.353649 -490.734131 243 243 243
-81.027222 20.353649 -490.734131 241 243 243
-73.842926 18.503319 -446.121948 241 243 243
-4.613076 1.024727 -24.706564 240 242 242
-4.623145 1.024727 -24.706564 240 242 242
-4.304001 0.933654 -22.510740 240 242 242
-4.313175 0.933654 -22.510740 239 241 241
-4.312459 0.931517 -22.459229 239 241 241
-4.326562 0.932584 -22.484955 239 241 241
-4.335726 0.932584 -22.484955 239 241 241
-4.344890 0.932584 -22.484955 240 242 242
-4.354053 0.932584 -22.484955 246 248 248
1.912620 0.868692 -21.152332 195 195 195
1.903999 0.868692 -21.152332 195 194 196
1.895378 0.868692 -21.152332 195 194 196
-0.248754 3.512619 -85.531006 189 187 186
-0.283612 3.512619 -85.531006 188 189 187
-0.317778 3.504983 -85.345070 188 187 189
-0.385666 3.489810 -84.975609 189 187 187
-0.420298 3.489810 -84.975609 188 186 185
-0.454930 3.489810 -84.975609 187 187 187
-0.489562 3.489810 -84.975609 187 187 187
-0.524194 3.489810 -84.975609 189 187 187
-0.558827 3.489810 -84.975609 189 187 187
-0.593459 3.489810 -84.975609 189 187 186
-0.628091 3.489810 -84.975609 182 185 189
-0.662723 3.489810 -84.975609 151 162 176
-0.697355 3.489810 -84.975609 104 122 145
-0.731987 3.489810 -84.975609 85 110 144
-0.764963 3.482272 -84.792076 82 109 146
-0.801251 3.489810 -84.975609 80 106 142
-0.835883 3.489810 -84.975609 102 120 149
-0.870515 3.489810 -84.975609 164 173 186
-0.905147 3.489810 -84.975609 181 184 188
-0.939779 3.489810 -84.975609 185 184 188
-0.974411 3.489810 -84.975609 184 183 185
-1.009043 3.489810 -84.975609 183 183 183
-1.041421 3.482272 -84.792076 182 184 184
-1.150060 3.497380 -85.159935 185 186 184
-1.184768 3.497380 -85.159935 184 185 183
-1.219475 3.497380 -85.159935 184 184 184
-0.786949 1.297097 -31.583855 181 184 182
-0.799821 1.297097 -31.583855 182 185 183
-0.812693 1.297097 -31.583855 181 183 183
-0.825565 1.297097 -31.583855 182 184 184
-0.838438 1.297097 -31.583855 182 184 184
-0.851310 1.297097 -31.583855 180 182 182
-0.864182 1.297097 -31.583855 175 177 177
-0.877054 1.297097 -31.583855 147 147 147
-0.889926 1.297097 -31.583855 117 113 112
-0.902798 1.297097 -31.583855 99 94 93
-0.928542 1.297097 -31.583855 75 71 70
-0.941414 1.297097 -31.583855 124 122 122
-0.954286 1.297097 -31.583855 177 175 175
-0.967158 1.297097 -31.583855 183 183 183
-0.980030 1.297097 -31.583855 182 182 182
-0.992903 1.297097 -31.583855 184 184 184
-1.005775 1.297097 -31.583855 184 184 184
-1.017828 1.296055 -31.558466 184 184 184
-1.030690 1.296055 -31.558466 185 185 185
-1.044391 1.297097 -31.583855 185 185 185
-1.057263 1.297097 -31.583855 185 185 185
-1.070135 1.297097 -31.583855 185 185 185
-1.083879 1.298142 -31.609283 186 186 186
-1.098531 1.300236 -31.660267 187 184 186
-1.111434 1.300236 -31.660267 187 184 186
-1.134495 1.297097 -31.583855 182 183 187
-2.160451 2.152593 -52.414860 185 185 185
-2.176003 2.146860 -52.275272 185 185 185
-2.191471 2.141158 -52.136429 187 185 185
-2.203939 2.132661 -51.929539 188 186 186
-2.228050 2.135486 -51.998318 186 186 186
-2.279492 2.144005 -52.205757 188 186 186
-2.300768 2.144005 -52.205757 186 186 186
-2.318961 2.141158 -52.136429 186 186 186
-2.340210 2.141158 -52.136429 185 187 187
-2.358326 2.138318 -52.067284 186 186 186
-2.379546 2.138318 -52.067284 187 185 185
-2.400766 2.138318 -52.067284 189 184 183
-2.418779 2.135486 -51.998318 192 170 172
-2.436743 2.132661 -51.929539 180 126 131
-2.457907 2.132661 -51.929539 169 99 105
-2.485647 2.138318 -52.067284 173 96 103
-2.506867 2.138318 -52.067284 177 117 118
-2.528087 2.138318 -52.067284 196 165 166
-2.549308 2.138318 -52.067284 195 186 183
-2.573941 2.141158 -52.136429 189 184 185
-2.626904 2.149723 -52.344975 185 187 187
-2.648237 2.149723 -52.344975 184 186 186
-1.869167 1.353730 -32.962830 187 185 184
-1.882601 1.353730 -32.962830 184 186 187
-1.896035 1.353730 -32.962830 171 176 185
-1.909469 1.353730 -32.962830 122 133 153
-4.203985 2.313188 -56.325294 187 187 187
-4.233014 2.316511 -56.406223 188 188 188
-4.256002 2.316511 -56.406223 188 186 186
-4.278991 2.316511 -56.406223 195 193 193
-4.301980 2.316511 -56.406223 213 211 210
-4.292451 2.286939 -55.686142 186 184 183
-4.315145 2.286939 -55.686142 187 185 184
-3.640790 1.636845 -39.856579 188 187 183
-3.641461 1.615523 -39.337406 189 189 183
-3.653831 1.613906 -39.298027 188 188 182
-3.669847 1.613906 -39.298027 190 189 185
-18.465942 7.499032 -182.598740 244 246 246
-18.540361 7.499032 -182.598740 244 246 246
-18.614780 7.499032 -182.598740 244 246 246
-18.689199 7.499032 -182.598740 244 246 246
-18.676748 7.464315 -181.753387 244 246 246
-69.427223 20.153650 -490.734131 242 244 244
-69.627220 20.153650 -490.734131 243 245 245
-69.827225 20.153650 -490.734131 245 245 245
-70.027222 20.153650 -490.734131 245 245 245
-70.227219 20.153650 -490.734131 245 245 245
-71.427223 20.153650 -490.734131 245 246 244
-71.627220 20.153650 -490.734131 245 246 244
-65.297478 18.321501 -446.121948 245 246 244
-80.827225 20.153650 -490.734131 243 243 243
-81.027222 20.153650 -490.734131 241 243 243
-73.842926 18.321501 -446.121948 241 243 243
-4.613076 1.014658 -24.706564 240 242 242
-4.623145 1.014658 -24.706564 240 242 242
-4.313175 0.924479 -22.510740 239 241 241
-4.312459 0.922364 -22.459229 239 241 241
-4.326562 0.923420 -22.484955 239 241 241
-4.335726 0.923420 -22.484955 239 241 241
-4.344890 0.923420 -22.484955 240 242 242
-4.354053 0.923420 -22.484955 246 248 248
1.912620 0.860071 -21.152332 195 194 196
1.903999 0.860071 -21.152332 196 195 197
1.895378 0.860071 -21.152332 196 195 197
-0.248754 3.477760 -85.531006 188 186 185
-0.283612 3.477760 -85.531006 187 188 186
-0.317778 3.470200 -85.345070 188 187 189
-0.385666 3.455178 -84.975609 190 188 188
-0.420298 3.455178 -84.975609 188 186 185
-0.454930 3.455178 -84.975609 187 187 187
-0.489562 3.455178 -84.975609 187 187 187
-0.524194 3.455178 -84.975609 187 187 187
-0.558827 3.455178 -84.975609 187 187 187
-0.593459 3.455178 -84.975609 189 187 186
-0.628091 3.455178 -84.975609 181 184 188
-0.662723 3.455178 -84.975609 149 160 174
-0.697355 3.455178 -84.975609 102 120 143
-0.731987 3.455178 -84.975609 84 109 143
-0.766619 3.455178 -84.975609 82 109 146
-0.801251 3.455178 -84.975609 78 104 140
-0.835883 3.455178 -84.975609 98 116 145
-0.870515 3.455178 -84.975609 160 169 182
-0.905147 3.455178 -84.975609 181 184 188
-0.939779 3.455178 -84.975609 186 185 189
-0.974411 3.455178 -84.975609 184 183 185
-1.009043 3.455178 -84.975609 185 185 185
-1.041421 3.447715 -84.792076 183 185 185
-1.150060 3.462672 -85.159935 186 187 185
-1.184768 3.462672 -85.159935 185 186 184
-0.799821 1.284225 -31.583855 182 185 183
-0.812693 1.284225 -31.583855 184 184 184
-0.825565 1.284225 -31.583855 185 185 185
-0.838438 1.284225 -31.583855 187 185 185
-0.851310 1.284225 -31.583855 185 183 183
-0.864182 1.284225 -31.583855 182 177 179
-0.877054 1.284225 -31.583855 151 146 147
-0.889926 1.284225 -31.583855 117 112 111
-0.902798 1.284225 -31.583855 96 91 90
-0.915670 1.284225 -31.583855 80 76 75
-0.928542 1.284225 -31.583855 74 70 69
-0.941414 1.284225 -31.583855 123 121 120
-0.954286 1.284225 -31.583855 178 176 175
-0.967158 1.284225 -31.583855 185 183 183
-0.980030 1.284225 -31.583855 184 182 182
-0.992903 1.284225 -31.583855 185 185 185
-1.005775 1.284225 -31.583855 184 184 184
-1.017828 1.283193 -31.558466 184 184 184
-1.030690 1.283193 -31.558466 184 184 184
-1.044391 1.284225 -31.583855 185 186 184
-1.070135 1.284225 -31.583855 185 186 184
-1.083879 1.285259 -31.609283 185 185 185
-1.098531 1.287332 -31.660267 187 184 186
-1.111434 1.287332 -31.660267 185 184 186
-1.134495 1.284225 -31.583855 181 185 186
-1.166542 1.277034 -31.406984 187 184 186
-2.160451 2.131231 -52.414860 186 186 186
-2.176003 2.125555 -52.275272 185 185 185
-2.191471 2.119910 -52.136429 187 185 185
-2.203939 2.111497 -51.929539 188 186 186
-2.228050 2.114294 -51.998318 186 186 186
