ply
format ascii 1.0
element vertex 1222
property float x
property float y
property float z
property uchar red
property uchar green
property uchar blue
end_header
0.795352 0.289433 -26.055254 77 28 20
0.778995 0.287329 -25.865824 71 24 16
0.770968 0.288281 -25.951586 68 26 19
0.759854 0.288090 -25.934389 62 26 18
0.748755 0.287899 -25.917213 64 35 28
2.295968 3.018946 -271.770782 111 104 85
2.042984 2.822911 -254.123322 101 94 75
1.832021 2.667044 -240.091980 105 97 80
1.723289 2.650782 -238.628006 109 101 84
-0.636857 0.381675 -34.359081 101 93 80
-6.546591 1.704816 -153.470551 59 43 31
-6.583518 1.698157 -152.871063 62 46 34
-1.779347 0.373799 -33.650036 13 10 5
-1.791564 0.373478 -33.621128 24 21 17
-1.808417 0.374121 -33.678993 40 35 34
-1.815935 0.372837 -33.563457 30 25 24
-1.707154 0.308537 -27.775013 26 26 20
-1.710015 0.307011 -27.637707 20 17 12
-1.716465 0.306147 -27.559855 20 16 11
-9.653694 1.558166 -140.268784 64 48 41
-9.711041 1.558166 -140.268784 48 33 24
-9.803528 1.563771 -140.773346 44 29 20
-9.968657 1.580830 -142.309067 52 36 24
-9.954443 1.569416 -141.281555 57 39 28
-2.735318 0.372837 -33.563457 27 18 4
-2.741985 0.371880 -33.477325 27 17 0
-2.873264 0.378354 -34.060047 65 57 34
-2.879671 0.377368 -33.971348 92 84 61
-2.898592 0.378025 -34.030430 100 91 71
-2.493492 0.279568 -25.167198 102 95 78
-2.494158 0.278493 -25.070463 102 97 82
-2.486883 0.276545 -24.895033 105 100 85
-2.888477 0.289240 -26.037918 103 99 75
-2.879961 0.287329 -25.865824 100 96 72
-2.867790 0.285068 -25.662291 98 94 75
-2.887750 0.286005 -25.746706 103 99 80
-2.888774 0.285068 -25.662291 105 101 83
-2.897366 0.284881 -25.645473 99 95 77
-12.479852 1.078730 -97.109161 103 93 83
-12.645063 1.089544 -98.082687 106 96 86
-12.685163 1.089544 -98.082687 105 94 86
-12.414133 1.062905 -95.684578 109 98 90
-12.362574 1.055166 -94.987846 107 96 88
-4.612649 0.335697 -30.220072 109 99 82
-4.528944 0.327849 -29.513569 106 98 81
-4.510397 0.325639 -29.314600 101 94 77
-10.586777 0.651766 -58.673153 101 92 78
-10.531816 0.646917 -58.236595 101 92 78
-10.477667 0.642139 -57.806488 97 89 76
-10.563715 0.645956 -58.150063 97 89 76
-10.556119 0.644042 -57.977768 104 96 83
-10.533010 0.641192 -57.721226 105 98 83
-14.854092 0.898199 -80.857422 100 95 80
-7.635904 0.456647 -41.108185 105 98 79
-7.653439 0.455690 -41.022003 104 95 75
-7.646165 0.454261 -40.893410 97 88 68
-7.623056 0.451900 -40.680866 102 93 73
-7.584500 0.448636 -40.386990 101 91 73
6.250582 0.393542 -36.781006 31 22 19
5.798080 0.368599 -34.449818 16 8 8
5.789092 0.368924 -34.480171 15 7 7
4.670577 0.309710 -28.946001 29 14 12
4.651861 0.309253 -28.903244 26 11 9
4.609406 0.307211 -28.712393 22 9 7
8.366837 0.593941 -55.510628 28 11 14
25.900614 2.147324 -200.692261 58 46 46
24.321835 2.022842 -189.057938 45 33 33
16.481318 1.453917 -135.885391 95 84 80
16.482996 1.458983 -136.358856 78 67 63
16.427246 1.458983 -136.358856 61 50 46
6.341443 0.604225 -56.471851 69 48 40
6.373537 0.609502 -56.965054 80 60 49
6.295267 0.604225 -56.471851 91 74 61
6.191766 0.596479 -55.747852 108 92 79
6.048351 0.584816 -54.657810 124 108 95
4.894223 0.565085 -52.813755 89 17 9
4.912407 0.569698 -53.244888 87 20 11
4.883994 0.568924 -53.172543 84 22 12
4.875503 0.570474 -53.317429 81 19 11
4.860327 0.571253 -53.390167 83 19 14
4.841074 0.576761 -53.904949 87 22 14
4.859194 0.581567 -54.354156 78 19 4
4.850445 0.583187 -54.505562 76 21 6
4.821445 0.582376 -54.429752 77 22 9
4.779251 0.579956 -54.203590 72 16 5
4.737406 0.577556 -53.979301 75 18 9
3.888708 0.478547 -44.725704 77 15 9
3.844063 0.475287 -44.421104 82 18 13
3.804311 0.472605 -44.170422 87 19 12
3.769235 0.470481 -43.971901 89 21 14
8.357266 1.079196 -100.863380 71 16 11
8.402655 1.090438 -101.914040 75 20 15
8.232357 1.073662 -100.346130 77 21 16
3.390759 0.538904 -50.366787 73 18 9
3.340076 0.534092 -49.917084 70 15 8
2.253101 0.416231 -38.901581 81 25 20
2.230545 0.414993 -38.785919 84 23 19
1.943392 0.500273 -46.756264 71 22 12
1.919689 0.499080 -46.644806 66 17 7
1.896099 0.497893 -46.533878 72 21 11
1.863777 0.494366 -46.204243 73 19 8
1.821235 0.488028 -45.611877 75 19 8
1.779790 0.486893 -45.505806 82 27 18
1.763236 0.487460 -45.558781 78 31 23
1.740557 0.486328 -45.452953 97 58 50
1.723976 0.486893 -45.505806 113 82 73
1.701415 0.485764 -45.400223 108 82 75
1.673148 0.482962 -45.138401 104 78 71
0.870414 0.289577 -27.064310 61 22 14
0.850527 0.286604 -26.786442 63 24 16
0.832735 0.284269 -26.568222 67 25 18
0.815232 0.281972 -26.353531 68 26 19
0.796944 0.279338 -26.107399 70 28 21
0.780026 0.277120 -25.900061 76 37 28
0.773018 0.278410 -26.020607 69 33 25
0.762887 0.278595 -26.037918 73 42 33
0.751742 0.278410 -26.020607 86 58 51
2.029803 2.701472 -252.483826 103 96 77
1.820850 2.553221 -238.628006 104 96 79
1.723289 2.553221 -238.628006 108 101 86
-0.625005 0.368924 -34.480171 105 96 83
-0.637978 0.368275 -34.419518 106 98 85
-0.649195 0.366662 -34.268818 105 96 86
-0.730399 0.333382 -31.158434 108 99 86
-0.740778 0.332324 -31.059517 104 95 82
-0.749906 0.330749 -30.912315 105 96 82
-6.483846 1.642071 -153.470551 50 33 24
-6.572365 1.648536 -154.074768 70 54 42
-6.609336 1.642071 -153.470551 61 45 33
-1.771730 0.358500 -33.505985 19 16 12
-1.790026 0.359423 -33.592266 23 19 18
-1.802213 0.359115 -33.563457 17 11 12
-1.708808 0.295503 -27.618202 18 15 10
-1.715257 0.294672 -27.540459 12 8 3
-9.653694 1.500818 -140.268784 51 35 29
-9.745974 1.506217 -140.773346 47 31 24
-9.803528 1.506217 -140.773346 43 28 19
-10.005039 1.528205 -142.828445 51 34 25
-10.026838 1.522648 -142.309067 47 28 20
-10.012204 1.511654 -141.281555 43 24 16
-2.875767 0.364746 -34.089714 71 58 36
-2.872191 0.362535 -33.883110 87 74 52
-2.893559 0.363479 -33.971348 101 90 70
-2.500894 0.271197 -25.346497 105 97 80
-2.493492 0.269279 -25.167198 104 97 82
-2.495757 0.268416 -25.086533 103 98 83
-2.493227 0.267046 -24.958542 103 98 83
-2.872367 0.276024 -25.797623 103 100 79
-2.887750 0.275479 -25.746706 97 93 74
-2.888774 0.274576 -25.662291 103 99 80
-2.897366 0.274396 -25.645473 103 99 81
-4.761789 0.337412 -31.535046 101 94 77
-4.713906 0.333117 -31.133646 99 92 75
-4.674572 0.329448 -30.790710 103 95 78
-4.646943 0.326621 -30.526514 105 97 80
-4.619784 0.323842 -30.266815 107 97 80
-4.561600 0.318910 -29.805782 105 95 78
-4.542648 0.316738 -29.602869 111 101 84
-4.534172 0.315307 -29.469120 103 95 78
-10.602674 0.628721 -58.761250 101 92 78
-10.500565 0.621258 -58.063786 104 95 81
-10.431441 0.615777 -57.551460 100 91 78
-10.501301 0.618505 -57.806488 97 89 76
-10.524934 0.618505 -57.806488 105 98 83
-14.760042 0.861581 -80.524673 104 97 82
-14.854092 0.865141 -80.857422 100 93 76
-7.699979 0.444510 -41.544579 107 100 81
-7.676220 0.442163 -41.325230 105 98 79
-7.709397 0.443099 -41.412689 109 100 80
-7.685664 0.440767 -41.194729 108 99 79
-7.654886 0.437086 -40.850723 103 93 75
6.268256 0.379574 -36.885006 24 16 16
6.259075 0.379932 -36.919804 19 11 11
6.279525 0.382095 -37.129974 14 6 6
4.674034 0.298096 -28.967426 23 11 7
4.651861 0.297436 -28.903244 23 12 8
4.612790 0.295689 -28.733475 22 11 7
8.437403 0.574505 -55.827377 25 11 12
8.366837 0.571246 -55.510628 24 10 12
8.273726 0.566425 -55.042183 24 7 10
6.426826 0.461315 -44.828171 20 4 11
6.372004 0.458688 -44.572884 21 7 11
35.295971 2.796724 -271.770782 65 57 58
25.637663 2.044306 -198.654785 49 41 48
23.748205 1.899661 -184.599014 40 32 42
16.533171 1.388718 -134.948242 83 69 63
16.365135 1.379206 -134.023941 114 102 98
16.199387 1.369824 -133.112213 109 97 95
16.424290 1.393523 -135.415192 100 88 86
16.540628 1.408141 -136.835632 82 70 68
16.484684 1.408141 -136.835632 60 47 45
6.277151 0.579465 -56.309341 114 95 87
6.139293 0.568825 -55.275414 118 101 92
6.023115 0.560123 -54.429752 117 101 89
29.295969 2.796724 -271.770782 26 10 11
4.874488 0.541301 -52.600796 94 19 11
4.905733 0.547185 -53.172543 91 19 11
4.890639 0.547930 -53.244888 89 21 14
4.888824 0.550175 -53.463104 83 20 12
4.873624 0.550928 -53.536240 81 15 10
4.847751 0.555487 -53.979301 90 22 15
4.886340 0.562470 -54.657810 81 19 9
4.863994 0.562470 -54.657810 81 23 11
4.834895 0.561685 -54.581577 78 23 10
4.805877 0.560903 -54.505562 69 16 3
4.750511 0.557024 -54.128620 67 13 2
3.902086 0.461844 -44.879578 77 20 11
3.883738 0.461844 -44.879578 80 21 12
3.838974 0.458688 -44.572884 84 21 13
3.773475 0.453013 -44.021362 89 24 16
8.491103 1.059811 -102.986824 76 21 14
8.296174 1.040641 -101.124008 76 21 14
3.420154 0.519649 -50.496765 77 24 11
3.390759 0.518312 -50.366787 72 19 9
3.344342 0.514340 -49.980831 74 20 13
1.910581 0.477732 -46.423477 69 20 10
1.876023 0.473798 -46.041168 72 23 13
1.844182 0.470477 -45.718449 75 22 12
1.808587 0.466121 -45.295132 78 21 12
1.779769 0.463439 -45.034512 80 18 10
1.761357 0.463439 -45.034512 83 24 15
0.849364 0.275276 -26.749825 72 47 37
0.832735 0.273407 -26.568222 77 50 40
0.816882 0.271746 -26.406878 82 55 45
0.798542 0.269203 -26.159754 89 62 52
0.787321 0.269024 -26.142279 96 69 59
0.775080 0.268485 -26.089994 97 74 66
0.764923 0.268665 -26.107399 100 79 71
2.001112 0.723031 -70.260307 109 93 86
1.972387 0.723031 -70.260307 107 94 86
1.940178 0.721735 -70.134392 101 92 83
1.891169 0.714057 -69.388283 100 91 82
1.019135 0.527131 -51.223812 104 101 86
0.995587 0.525755 -51.090069 104 100 82
0.979816 0.528515 -51.358257 99 95 76
0.956308 0.527131 -51.223812 103 97 78
0.944015 0.532006 -51.697479 108 103 82
0.920447 0.530604 -51.561256 103 98 77
0.591947 0.406386 -39.490406 106 100 81
0.571191 0.403131 -39.174168 107 101 82
0.552410 0.401124 -38.979076 101 97 78
0.532759 0.398346 -38.709190 102 99 78
2.079368 2.532882 -246.132019 107 100 83
1.918411 2.455660 -238.628006 108 101 84
1.798912 2.426074 -235.752960 112 105 90
-0.638539 0.354514 -34.449818 101 93 80
-0.649764 0.352961 -34.298855 105 97 84
-0.718804 0.321155 -31.208128 105 99 86
-0.732147 0.321411 -31.233034 107 99 86
-0.743137 0.320643 -31.158434 103 95 82
-0.755876 0.320643 -31.158434 101 94 79
-0.767393 0.320134 -31.108896 105 98 83
-0.913612 0.266355 -25.882931 57 36 28
-2.036195 0.464508 -45.138401 34 15 10
-2.040528 0.461315 -44.828171 34 14 9
-2.056499 0.460787 -44.776878 42 22 17
-1.710015 0.284413 -27.637707 12 8 3
-1.716465 0.283611 -27.559855 18 12 7
-9.653694 1.443470 -140.268784 51 35 29
-9.745974 1.448663 -140.773346 63 47 41
-9.838920 1.453892 -141.281555 38 19 14
-10.078606 1.480618 -143.878647 41 21 16
-10.137428 1.480618 -143.878647 43 23 18
-10.233877 1.486082 -144.409561 40 19 17
-2.488691 0.258491 -25.118736 109 102 87
-2.492561 0.257829 -25.054413 110 103 88
-2.496412 0.257170 -24.990416 109 104 89
-4.754128 0.323997 -31.484306 100 94 75
-4.717659 0.320643 -31.158434 99 93 74
-4.678252 0.317109 -30.814955 97 90 73
-4.654203 0.314631 -30.574213 105 97 80
-4.623359 0.311709 -30.290241 106 96 79
-4.561600 0.306724 -29.805782 109 99 82
-4.542648 0.304636 -29.602869 106 95 81
-4.544438 0.303946 -29.535843 101 92 78
-23.266376 1.351437 -131.325470 98 94 76
-23.164600 1.342427 -130.449966 96 92 73
-10.618617 0.605606 -58.849613 105 94 80
-10.516167 0.598407 -58.150063 105 94 80
-10.446805 0.593120 -57.636219 108 96 84
-14.760042 0.828659 -80.524673 101 94 79
-14.854092 0.832083 -80.857422 102 95 78
-5.200391 0.271380 -26.371288 101 96 81
6.325066 0.366915 -37.129974 18 10 10
6.286030 0.365528 -36.989597 22 14 14
6.264986 0.365182 -36.954666 18 10 10
6.261703 0.365873 -37.024590 15 7 8
4.651861 0.285619 -28.903244 19 10 6
5.940291 0.376195 -38.069057 30 13 16
5.907487 0.375100 -37.958286 29 12 16
5.792180 0.369721 -37.413952 25 8 11
5.718953 0.367962 -37.235958 21 7 8
5.676723 0.366220 -37.059650 20 6 7
8.343168 0.546999 -55.353596 23 9 11
8.262106 0.543158 -54.964878 24 10 12
6.437780 0.442481 -44.776878 21 7 13
6.419473 0.442481 -44.776878 20 6 12
6.364755 0.439964 -44.522175 18 4 8
31.574354 2.372566 -240.091980 43 34 30
31.284266 2.358099 -238.628006 48 40 33
30.810961 2.329688 -235.752960 53 44 40
32.683460 2.479027 -250.865341 50 42 42
33.219738 2.527635 -255.784256 45 40 41
25.900614 1.983222 -200.692261 30 27 36
24.089088 1.850374 -187.248764 30 28 40
16.476357 1.328963 -134.484512 115 100 98
16.365135 1.324412 -134.023941 111 98 96
16.144474 1.310943 -132.660995 118 106 104
16.538744 1.347485 -136.358856 103 91 89
16.657112 1.361719 -137.799271 79 67 67
16.600773 1.361719 -137.799271 54 40 41
16.602896 1.366531 -138.286194 36 23 21
29.407082 2.685613 -271.770782 34 18 19
29.295969 2.685613 -271.770782 24 9 7
4.899076 0.524733 -53.100395 93 18 10
4.890639 0.526161 -53.244888 91 21 14
4.902218 0.529765 -53.609577 85 17 10
4.893708 0.531220 -53.756859 82 16 11
4.906899 0.542396 -54.887787 88 23 15
4.877618 0.541636 -54.810913 81 20 10
4.855209 0.541636 -54.810913 76 18 6
4.832800 0.541636 -54.810913 76 21 8
4.796955 0.540123 -54.657810 77 24 11
3.920069 0.445539 -45.086395 74 18 7
3.897146 0.445027 -45.034512 79 20 10
3.865389 0.443496 -44.879578 88 25 17
3.829474 0.441471 -44.674648 92 27 19
3.828692 0.443496 -44.879578 89 23 18
3.399509 0.499004 -50.496765 72 19 9
1.495456 0.326629 -33.053204 72 23 15
1.474470 0.324982 -32.886547 69 22 14
1.462253 0.325255 -32.914207 64 21 12
1.901558 0.456586 -46.204243 68 22 11
1.867236 0.452843 -45.825520 68 23 12
4.524579 1.247510 -126.241913 107 92 76
4.346769 1.212314 -122.680229 100 89 75
0.848204 0.263978 -26.713305 105 89 76
0.832735 0.262545 -26.568222 107 90 77
0.817434 0.261126 -26.424707 111 94 81
0.801758 0.259549 -26.265095 107 89 78
0.777152 0.258508 -26.159754 107 91 79
2.029837 0.694306 -70.260307 108 96 86
1.997526 0.693061 -70.134392 103 92 84
1.951367 0.686906 -69.511528 102 93 84
1.916141 0.684475 -69.265472 107 98 89
1.881163 0.682060 -69.021149 111 104 95
1.843192 0.678471 -68.657883 100 94 83
0.998193 0.506189 -51.223812 105 101 83
0.592545 0.390635 -39.530296 106 100 81
0.571763 0.387503 -39.213421 104 98 79
0.552410 0.385187 -38.979076 106 103 82
0.532233 0.382143 -38.670940 105 102 81
1.872735 2.301954 -232.946381 104 97 80
-0.639665 0.341030 -34.510574 103 95 82
-0.649764 0.338938 -34.298855 107 99 86
-0.721104 0.309383 -31.307993 103 98 83
-0.734492 0.309630 -31.333059 105 97 84
-0.744917 0.308642 -31.233034 103 95 82
-0.757082 0.308396 -31.208128 101 94 79
-0.769228 0.308150 -31.183260 103 96 81
-6.108272 2.160493 -218.631241 102 95 78
-0.912405 0.255435 -25.848740 57 38 30
-0.920541 0.254762 -25.780628 56 36 25
-2.057553 0.450732 -45.611877 38 21 12
-2.064172 0.448121 -45.347614 40 21 14
-2.065955 0.444515 -44.982750 43 24 16
-9.688419 1.391109 -140.773346 40 26 20
-9.781157 1.396131 -141.281555 64 48 42
-9.874567 1.401189 -141.793457 50 31 26
-10.153261 1.432327 -144.944412 33 12 10
-10.212521 1.432327 -144.944412 53 32 30
-10.348435 1.443016 -146.026093 47 26 25
-1.844872 0.247269 -25.022373 60 44 31
-1.852733 0.246953 -24.990416 55 38 29
-1.858204 0.246324 -24.926746 59 40 32
-16.688391 1.782158 -180.345581 105 98 83
-16.609043 1.765882 -178.698593 106 101 86
-2.377578 0.234239 -23.703812 107 102 87
-2.382939 0.233814 -23.660818 99 94 79
-4.757955 0.311375 -31.509655 102 96 77
-4.717659 0.307905 -31.158434 103 97 78
-4.678252 0.304510 -30.814955 100 93 76
-4.654203 0.302131 -30.574213 104 97 80
-4.626941 0.299557 -30.313704 99 91 74
-4.582541 0.295890 -29.942610 106 96 79
-4.559894 0.293643 -29.715256 108 97 83
-4.561652 0.292976 -29.647722 106 97 83
-4.559955 0.292091 -29.558151 106 97 83
-24.356974 1.361719 -137.799271 98 91 74
-23.502985 1.310943 -132.660995 95 91 72
-23.320068 1.297746 -131.325470 98 94 75
-22.988054 1.276331 -129.158386 101 98 77
-15.489957 0.840714 -85.076073 107 98 85
-15.002900 0.812454 -82.216370 103 95 82
-14.818593 0.800680 -81.024826 100 93 78
-14.699550 0.792476 -80.194656 102 95 80
-14.792964 0.795737 -80.524673 101 93 76
-14.917972 0.800680 -81.024826 101 93 76
-14.858808 0.795737 -80.524673 102 92 74
-5.196889 0.260423 -26.353531 98 93 78
-5.190188 0.259549 -26.265095 101 95 82
-5.215165 0.259723 -26.282734 100 91 81
-5.236461 0.260248 -26.335796 100 92 79
6.291977 0.350736 -37.024590 22 17 14
5.940291 0.360631 -38.069057 28 14 16
5.814414 0.355785 -37.557575 17 3 5
5.771366 0.354086 -37.378216 17 5 5
5.745109 0.353411 -37.306953 17 3 4
5.724400 0.353074 -37.271420 18 6 6
5.698308 0.352403 -37.200562 19 7 7
8.343168 0.524368 -55.353596 20 7 9
8.262106 0.520686 -54.964878 24 10 12
8.193603 0.517777 -54.657810 30 13 16
6.474393 0.424174 -44.776878 22 7 11
6.448708 0.423689 -44.725704 21 7 13
6.437780 0.424174 -44.776878 21 7 13
6.412137 0.423689 -44.725704 18 6 12
6.350306 0.420804 -44.421104 13 2 5
32.573544 2.346381 -247.689819 41 33 34
31.476194 2.274406 -240.091980 42 34 34
30.626465 2.219929 -234.341278 44 39 38
26.443035 1.940985 -204.895248 32 34 42
16.363890 1.265284 -133.566528 109 93 94
16.253809 1.260980 -133.112213 111 99 95
16.035757 1.248243 -131.767654 104 92 88
16.255547 1.269617 -134.023941 91 78 76
16.486385 1.300801 -137.315765 46 33 31
16.259096 1.287251 -135.885391 67 55 51
29.407082 2.574502 -271.770782 59 44 42
29.295969 2.574502 -271.770782 32 17 14
29.184858 2.574502 -271.770782 31 19 15
29.073748 2.574502 -271.770782 18 7 3
9.578918 0.910880 -96.154770 32 16 9
9.516224 0.908648 -95.919098 31 12 7
2.658846 0.270605 -28.565687 98 18 11
2.647167 0.270605 -28.565687 100 20 13
2.627816 0.269817 -28.482527 94 16 9
4.915686 0.509242 -53.756859 89 17 10
4.907189 0.510645 -53.904949 86 18 13
4.891319 0.520686 -54.964878 84 22 12
4.868847 0.520686 -54.964878 82 22 10
4.846375 0.520686 -54.964878 81 23 11
4.810391 0.519227 -54.810913 81 23 11
3.929122 0.428093 -45.190521 75 14 4
3.906135 0.427599 -45.138401 79 17 7
3.874275 0.426124 -44.982750 83 18 10
3.851457 0.425635 -44.931107 81 16 8
3.833088 0.425635 -44.931107 88 22 17
3.810343 0.425147 -44.879578 85 21 16
2.635533 0.332492 -35.098648 79 21 16
2.618834 0.332194 -35.067196 78 20 15
2.609174 0.332790 -35.130154 75 19 14
2.597142 0.333089 -35.161716 75 20 17
2.580448 0.332790 -35.130154 75 22 19
2.561487 0.332194 -35.067196 72 19 16
11.518932 1.519378 -160.389313 73 18 15
11.406610 1.513176 -159.734665 72 15 14
1.511522 0.313645 -33.109131 64 22 10
1.490420 0.312061 -32.941914 67 25 13
1.469530 0.310493 -32.776375 65 25 13
1.456130 0.310493 -32.776375 68 33 20
1.441522 0.310233 -32.748947 76 42 29
1.892620 0.435638 -45.987064 65 25 13
4.688299 1.211530 -127.892128 101 87 69
4.776496 1.248243 -131.767654 112 97 81
4.539221 1.199768 -126.650459 110 97 81
4.401966 1.176915 -124.238068 107 96 82
0.848204 0.253057 -26.713305 104 91 75
0.833301 0.251853 -26.586271 107 92 76
0.817986 0.250492 -26.442562 108 93 77
0.805000 0.249817 -26.371288 113 97 84
2.111638 0.682741 -72.071808 107 93 81
2.040829 0.669185 -70.640778 107 95 83
2.008323 0.667979 -70.513496 105 95 85
1.958323 0.660835 -69.759346 102 93 83
1.916141 0.656156 -69.265472 102 93 83
1.874551 0.651543 -68.778542 108 99 89
0.670922 0.264995 -27.973547 99 95 77
0.658074 0.264428 -27.913689 101 97 79
0.645281 0.263864 -27.854088 104 99 84
0.996888 0.484612 -51.156853 103 99 81
0.979816 0.486520 -51.358257 103 99 80
0.955058 0.484612 -51.156853 100 96 77
0.592545 0.374473 -39.530296 105 99 80
0.570619 0.370728 -39.134991 103 97 78
0.550764 0.368151 -38.862953 101 98 77
1.966372 2.317051 -244.593704 102 98 80
1.843330 2.288446 -241.574020 100 95 80
-0.639665 0.326921 -34.510574 101 94 79
-0.651477 0.325772 -34.389271 106 99 84
-0.669064 0.327498 -34.571548 104 97 82
-0.685014 0.328369 -34.663410 102 95 80
-0.723419 0.297535 -31.408501 102 97 82
-0.736260 0.297535 -31.408501 102 96 83
-0.747302 0.296820 -31.333059 102 96 83
-0.758897 0.296346 -31.282967 102 96 83
-0.770455 0.295872 -31.233034 101 96 81
-6.283797 2.130622 -224.913742 104 97 80
-0.913612 0.245191 -25.882931 53 31 25
-0.922363 0.244705 -25.831678 47 24 16
-2.134909 0.524368 -55.353596 43 26 17
-2.163661 0.525856 -55.510628 43 25 18
-2.174021 0.522889 -55.197449 60 42 35
-2.196588 0.522889 -55.197449 63 44 36
-2.058095 0.436151 -46.041168 24 8 0
-2.067190 0.434108 -45.825520 36 18 7
-2.081052 0.433094 -45.718449 52 33 25
-9.758625 1.343218 -141.793457 35 22 14
-9.852293 1.348103 -142.309067 56 40 34
-9.983079 1.357979 -143.351624 51 35 29
-10.191006 1.378172 -145.483246 36 17 14
-10.288733 1.383314 -146.026093 50 31 28
-10.348435 1.383314 -146.026093 52 33 30
-10.408136 1.383314 -146.026093 45 26 23
-10.507044 1.388495 -146.572998 39 20 17
-1.846053 0.237190 -25.038383 49 32 19
-1.856290 0.237190 -25.038383 56 37 29
-1.864141 0.236887 -25.006384 64 43 35
-16.462925 1.692823 -178.698593 103 94 81
-16.312525 1.669947 -176.283752 103 95 82
-16.094604 1.640390 -173.163681 105 99 86
-15.884264 1.611862 -170.152145 106 100 87
-15.884765 1.604884 -169.415558 103 94 84
-2.368236 0.225504 -23.804739 106 99 84
-2.363592 0.224140 -23.660818 101 94 79
-2.359003 0.222793 -23.518625 104 99 84
-2.368618 0.222793 -23.518625 99 94 79
-2.378233 0.222793 -23.518625 100 95 80
-8.297446 0.666777 -70.386673 105 98 81
-8.281539 0.663199 -70.008934 104 97 82
-8.280536 0.660835 -69.759346 104 97 82
-8.250231 0.656156 -69.265472 104 97 82
-8.234824 0.652691 -68.899635 106 99 84
-4.761789 0.298733 -31.535046 99 93 74
-4.728955 0.295872 -31.233034 101 95 76
-4.700459 0.293298 -30.961227 99 92 75
-4.661487 0.290085 -30.622059 102 95 78
-4.619784 0.286719 -30.266815 101 92 78
-9.323863 0.530369 -55.987114 104 97 82
-9.201944 0.522152 -55.119709 102 95 78
-9.198568 0.520686 -54.964878 102 94 77
-25.037746 1.348103 -142.309067 104 97 82
-25.560669 1.373067 -144.944412 102 95 80
-24.793478 1.328775 -140.268784 97 90 73
-23.908209 1.278373 -134.948242 94 90 71
-16.652660 0.872302 -92.082336 102 93 79
-16.231991 0.848348 -89.553757 103 94 81
-15.904655 0.829370 -87.550316 105 96 83
-15.523705 0.807687 -85.261421 105 96 83
-14.971447 0.777208 -82.044006 104 96 83
-14.669490 0.758135 -80.030663 100 95 80
-14.762589 0.761249 -80.359329 100 93 76
-14.856455 0.764388 -80.690704 103 96 79
-5.200391 0.249817 -26.371288 101 96 81
-5.193674 0.248978 -26.282734 103 97 84
-5.193954 0.248477 -26.229887 99 93 80
-5.215165 0.248978 -26.282734 102 93 83
-5.236461 0.249481 -26.335796 101 93 80
6.090978 0.327240 -36.102390 17 10 7
6.037231 0.325140 -35.870754 16 8 8
6.194827 0.341085 -37.629799 16 9 6
6.155766 0.339778 -37.485626 14 7 4
5.923007 0.344062 -37.958286 19 5 7
5.775615 0.338158 -37.306953 17 4 6
5.738480 0.336874 -37.165234 16 4 4
5.690859 0.334965 -36.954666 15 3 3
5.686490 0.335599 -37.024590 19 7 7
6.474393 0.405868 -44.776878 20 6 10
6.456087 0.405868 -44.776878 18 4 10
6.430422 0.405404 -44.725704 17 3 9
6.404817 0.404941 -44.674648 16 5 8
6.335923 0.401731 -44.320488 12 1 4
6.664943 0.442857 -48.857670 40 30 23
6.603746 0.440109 -48.554581 39 29 22
6.567598 0.439020 -48.434395 36 25 17
6.479877 0.435784 -48.077385 22 10 0
32.781017 2.259415 -249.267471 36 31 33
16.474724 1.214823 -134.023941 106 91 89
16.533171 1.223201 -134.948242 102 87 85
16.365135 1.214823 -134.023941 105 93 87
16.035757 1.194371 -131.767654 97 85 79
16.255547 1.214823 -134.023941 72 60 56
16.657112 1.249043 -137.799271 89 77 75
16.600773 1.249043 -137.799271 95 83 83
29.518192 2.463390 -271.770782 129 112 109
29.407082 2.463390 -271.770782 106 91 88
29.295969 2.463390 -271.770782 53 38 35
29.184858 2.463390 -271.770782 25 10 7
10.027090 0.904919 -99.834167 40 27 19
9.935582 0.900325 -99.327393 39 23 16
9.795527 0.891277 -98.329124 32 13 8
9.706549 0.886821 -97.837479 33 12 10
9.764191 0.895778 -98.825737 33 12 10
2.643309 0.258548 -28.524046 98 18 11
2.623997 0.257797 -28.441128 94 14 7
2.606686 0.257236 -28.379255 93 17 11
4.922436 0.496818 -54.810913 81 18 10
4.913791 0.498214 -54.964878 84 19 11
4.898199 0.498915 -55.042183 84 19 10
4.882563 0.499617 -55.119709 80 18 8
4.853192 0.498915 -55.042183 78 18 6
4.830688 0.498915 -55.042183 79 19 7
4.828558 0.501029 -55.275414 84 22 11
3.906135 0.409144 -45.138401 80 15 6
3.874275 0.407734 -44.982750 83 18 10
3.847041 0.406798 -44.879578 77 14 6
3.837494 0.407734 -44.982750 82 20 14
3.814718 0.407265 -44.931107 79 19 13
2.635533 0.318142 -35.098648 72 16 11
2.616490 0.317572 -35.035805 74 16 11
2.609174 0.318427 -35.130154 76 18 13
2.599478 0.319000 -35.193336 76 19 17
2.582767 0.318714 -35.161716 76 21 18
2.563784 0.318142 -35.098648 74 19 16
2.551723 0.318427 -35.130154 71 18 15
11.333142 1.430356 -157.802383 71 18 15
11.360241 1.441985 -159.085327 71 16 13
2.026467 0.271199 -29.919720 72 19 9
2.006565 0.270166 -29.805782 70 18 11
1.607637 0.300363 -33.137165 70 18 12
1.596793 0.300872 -33.193378 72 20 14
1.580541 0.300363 -33.137165 73 21 15
1.569652 0.300872 -33.193378 69 20 12
1.557402 0.301128 -33.221554 72 26 18
1.501361 0.298091 -32.886547 64 22 10
1.484174 0.297341 -32.803848 69 27 15
1.465847 0.296348 -32.694229 68 30 18
4.591001 1.147988 -126.650459 108 95 79
4.495575 1.136949 -125.432671 110 100 83
4.388036 1.122558 -123.844910 105 96 82
4.256582 1.101640 -121.537239 100 93 78
0.849945 0.242632 -26.768120 104 96 79
0.835003 0.241476 -26.640566 108 98 81
0.819093 0.240006 -26.478344 107 97 80
2.107756 0.652074 -71.939323 104 93 79
2.044520 0.641461 -70.768524 105 96 83
2.001112 0.636855 -70.260307 107 98 85
1.937600 0.625623 -69.021149 103 95 82
0.658544 0.253196 -27.933613 99 95 76
0.644364 0.252117 -27.814493 102 98 80
0.593744 0.359037 -39.610317 103 97 78
0.571763 0.355439 -39.213421 104 98 79
0.550764 0.352262 -38.862953 102 97 76
-0.685014 0.314197 -34.663410 99 92 77
-3.666878 1.583608 -174.709793 102 95 80
-0.721682 0.284010 -31.333059 102 97 82
-0.735670 0.284465 -31.383314 100 94 81
-0.746704 0.283783 -31.307993 103 97 84
-0.758897 0.283556 -31.282967 107 101 88
-0.770455 0.283103 -31.233034 105 99 86
-6.733629 2.217051 -244.593704 107 100 85
-6.394039 2.074434 -228.859604 105 98 81
-6.129175 1.959824 -216.215424 99 95 76
-5.954395 1.876869 -207.063446 108 104 85
-0.912405 0.234299 -25.848740 52 30 24
-0.921147 0.233835 -25.797623 48 25 17
-2.124297 0.504592 -55.668552 67 49 38
-2.153182 0.506032 -55.827377 36 17 9
-2.172907 0.505311 -55.747852 44 25 18
-2.199690 0.501029 -55.275414 48 29 21
-2.067826 0.419300 -46.258858 34 17 4
-2.076918 0.417327 -46.041168 28 11 0
-2.119553 0.418312 -46.149754 63 45 34
-2.153659 0.421292 -46.478615 52 34 23
-1.542531 0.229005 -25.264683 34 35 25
-9.960958 1.304148 -143.878647 37 23 17
-10.056755 1.308960 -144.409561 45 31 25
-10.153261 1.313808 -144.944412 46 29 26
-10.250485 1.318692 -145.483246 48 31 28
-10.271780 1.313808 -144.944412 42 25 22
-10.331039 1.313808 -144.944412 42 25 22
-1.848418 0.227244 -25.070463 63 44 31
-1.857478 0.227099 -25.054413 64 43 35
-1.867721 0.227099 -25.054413 77 54 46
-15.883248 1.555825 -171.644699 102 93 83
-15.746237 1.535620 -169.415558 104 95 85
-2.500566 0.227828 -25.134871 103 96 81
-2.858069 0.237913 -26.247480 100 93 76
-8.370055 0.639150 -70.513496 105 98 83
-8.383778 0.638000 -70.386673 102 95 80
-8.427712 0.639150 -70.513496 103 96 81
-5.375287 0.398124 -43.922550 105 100 85
-5.387197 0.397677 -43.873310 104 99 84
-5.375006 0.395461 -43.628754 102 97 82
-5.386838 0.395020 -43.580170 102 97 82
-4.757955 0.285610 -31.509655 101 95 76
-4.728955 0.283103 -31.233034 103 97 78
-4.700459 0.280639 -30.961227 101 94 77
-4.661487 0.277565 -30.622059 103 96 79
-9.323863 0.507480 -55.987114 102 94 81
-9.189002 0.498915 -55.042183 102 95 80
-9.159972 0.496123 -54.734253 103 94 80
-9.068205 0.489956 -54.053856 104 96 79
-25.221174 1.299371 -143.351624 98 91 76
-25.655689 1.318692 -145.483246 98 91 74
-24.882664 1.276001 -140.773346 100 93 76
-23.990936 1.227433 -135.415192 98 94 75
-16.574661 0.830745 -91.651039 101 92 78
-16.306622 0.815467 -89.965500 104 95 82
-14.669490 0.725416 -80.030663 100 95 80
-14.856455 0.731398 -80.690704 105 98 81
-14.889444 0.731398 -80.690704 103 95 78
-11.096323 0.539101 -59.475674 99 91 74
-5.200391 0.239035 -26.371288 100 95 80
-5.190188 0.238073 -26.265095 106 100 87
-5.211665 0.238073 -26.265095 102 93 83
-5.225910 0.238233 -26.282734 100 92 79
6.090978 0.312480 -36.102390 12 8 3
6.031703 0.310191 -35.837906 10 5 2
5.984171 0.308496 -35.642071 13 7 8
6.182936 0.325075 -37.557575 15 8 5
6.155766 0.324452 -37.485626 12 5 2
6.128699 0.323832 -37.413952 17 8 5
6.125114 0.324452 -37.485626 20 11 8
5.979121 0.330789 -38.217766 20 6 8
5.917267 0.328225 -37.921505 19 5 7
5.775615 0.322906 -37.306953 16 5 7
5.727602 0.321069 -37.094780 17 7 7
5.685490 0.319555 -36.919804 19 9 9
6.463482 0.388005 -44.828171 17 3 7
6.445154 0.388005 -44.828171 12 1 4
6.419473 0.387561 -44.776878 15 4 7
7.876260 0.490910 -56.717381 39 30 16
7.785373 0.486678 -56.228436 37 29 16
6.640074 0.421304 -48.675362 26 16 9
6.603746 0.420258 -48.554581 25 15 8
6.575737 0.419738 -48.494415 25 14 6
6.564044 0.420258 -48.554581 34 18 5
6.511876 0.418183 -48.314804 43 27 14
17.487753 1.227276 -141.793457 92 79 71
17.180784 1.209744 -139.767822 87 71 64
16.882463 1.192705 -137.799271 91 78 70
16.535015 1.172070 -135.415192 94 83 75
16.089931 1.144352 -132.212814 84 73 65
16.200068 1.156069 -133.566528 62 51 47
16.540628 1.184364 -136.835632 95 83 81
16.542524 1.188520 -137.315765 78 66 66
16.486385 1.188520 -137.315765 50 39 41
29.518192 2.352279 -271.770782 120 104 98
29.407082 2.352279 -271.770782 130 114 108
29.295969 2.352279 -271.770782 99 85 79
29.184858 2.352279 -271.770782 49 35 29
29.073748 2.352279 -271.770782 30 15 12
10.262713 0.884408 -102.180138 49 33 27
10.037486 0.868534 -100.346130 40 21 16
9.920151 0.861904 -99.580132 30 11 8
9.904641 0.864103 -99.834167 35 14 12
2.606686 0.245633 -28.379255 87 13 7
2.591325 0.245277 -28.338156 92 20 13
4.913791 0.475742 -54.964878 86 18 11
4.891319 0.475742 -54.964878 83 18 9
4.875695 0.476411 -55.042183 82 20 10
4.846375 0.475742 -54.964878 82 20 10
3.929122 0.391141 -45.190521 91 26 18
3.901635 0.390240 -45.086395 85 20 12
3.865389 0.388450 -44.879578 80 18 12
3.838237 0.387561 -44.776878 79 21 15
3.828692 0.388450 -44.879578 76 21 16
3.810343 0.388450 -44.879578 70 18 12
3.787651 0.388005 -44.828171 77 22 17
3.765011 0.387561 -44.776878 82 24 18
3.746704 0.387561 -44.776878 78 14 9
3.724136 0.387118 -44.725704 82 17 9
2.608862 0.305711 -35.320389 77 19 14
2.589747 0.305161 -35.256748 77 19 14
2.570701 0.304612 -35.193336 71 16 11
11.692968 1.417273 -163.744736 76 21 16
11.674871 1.423228 -164.432739 74 18 13
11.510914 1.411368 -163.062469 80 21 19
2.082779 0.262988 -30.384310 72 18 7
2.063947 0.262174 -30.290241 72 19 9
2.029571 0.259363 -29.965538 74 21 11
2.006565 0.257980 -29.805782 73 21 14
1.997421 0.258374 -29.851254 76 24 18
1.988250 0.258769 -29.896862 71 18 15
1.467736 0.214793 -24.816101 72 21 18
1.608999 0.287058 -33.165249 74 19 12
1.596793 0.287301 -33.193378 75 20 13
1.580541 0.286815 -33.137165 75 20 13
1.569652 0.287301 -33.193378 74 20 13
1.560050 0.288034 -33.278053 71 22 14
1.549080 0.288525 -33.334747 64 18 7
1.496331 0.283692 -32.776375 62 18 5
3.132648 0.610321 -70.513496 105 67 55
3.087132 0.607040 -70.134392 116 89 75
4.679417 1.092672 -126.241913 68 53 34
4.642781 1.096208 -126.650459 88 79 59
4.697415 1.121617 -129.586060 106 96 78
0.834435 0.230427 -26.622444 104 97 78
0.819093 0.229180 -26.478344 98 91 72
2.008323 0.610321 -70.513496 103 94 80
0.659014 0.241949 -27.953566 100 95 74
0.643449 0.240403 -27.775013 99 93 74
0.628081 0.238877 -27.598724 103 99 80
0.611622 0.236873 -27.367126 104 100 82
0.593144 0.342496 -39.570267 101 94 75
0.571191 0.339067 -39.174168 101 95 76
0.549128 0.335374 -38.747517 103 98 77
0.528576 0.332412 -38.405293 105 100 79
0.507398 0.328862 -37.995136 103 100 79
-3.660821 1.539674 -177.886322 104 97 80
-3.650580 1.505459 -173.933304 104 97 80
-3.593908 1.453769 -167.961334 104 97 80
-0.722260 0.271417 -31.358168 99 96 81
-0.735670 0.271634 -31.383314 97 94 80
-0.747901 0.271417 -31.358168 101 98 84
-0.759504 0.270983 -31.307993 105 101 90
-0.770455 0.270334 -31.233034 105 102 88
-6.320119 1.957967 -226.213821 103 96 79
-6.062189 1.850974 -213.852417 105 98 83
-5.892045 1.773446 -204.895248 106 99 84
-1.834086 0.465926 -53.830799 56 32 26
-1.848467 0.464011 -53.609577 49 25 19
-2.159343 0.484590 -55.987114 44 23 15
-1.103006 0.217552 -25.134871 51 31 14
-2.115654 0.402290 -46.478615 60 41 26
-2.134656 0.402290 -46.478615 59 42 29
-2.208517 0.361503 -41.766266 29 28 24
-2.223220 0.361117 -41.721741 30 29 25
-2.235511 0.360349 -41.632969 36 33 29
-8.047959 1.214080 -140.268784 25 15 15
-8.076360 1.209744 -139.767822 21 13 14
-8.047281 1.196919 -138.286194 15 9 10
-8.018813 1.184364 -136.835632 18 12 13
-7.963381 1.168028 -134.948242 20 15 16
-1.522374 0.217273 -25.102625 23 24 15
-1.533620 0.217412 -25.118736 29 29 17
-1.542900 0.217273 -25.102625 26 26 12
-2.026946 0.257980 -29.805782 35 29 18
-2.042243 0.258374 -29.851254 29 23 12
-10.169331 1.263911 -146.026093 41 30 22
-10.153261 1.254549 -144.944412 38 24 18
-10.250485 1.259213 -145.483246 39 25 19
-10.271780 1.254549 -144.944412 47 32 29
-10.292917 1.249920 -144.409561 43 28 25
-10.390299 1.254549 -144.944412 37 23 17
-1.850789 0.217273 -25.102625 59 40 27
-1.858668 0.216994 -25.070463 69 46 38
-2.452848 0.277192 -32.025360 62 38 26
-6.912511 0.664173 -76.735275 98 92 85
-6.889845 0.659004 -76.138115 105 96 87
-2.505393 0.217972 -25.183393 103 98 83
-2.507621 0.217273 -25.102625 97 92 77
-2.519500 0.217412 -25.118736 103 96 81
-2.533021 0.217692 -25.151024 106 99 84
-2.866563 0.228716 -26.424707 102 95 80
-2.863831 0.227640 -26.300398 99 92 75
-2.853489 0.225969 -26.107399 103 96 79
-3.810835 0.282745 -32.666939 98 91 76
-3.817817 0.282274 -32.612492 103 96 81
-3.816472 0.279248 -32.262978 104 97 82
-5.357249 0.378891 -43.775158 107 100 83
-5.375146 0.378891 -43.775158 100 93 76
-5.357090 0.376365 -43.483326 104 97 80
-5.362949 0.375530 -43.386909 104 97 80
-5.991986 0.410083 -47.378925 108 96 84
-5.932354 0.404693 -46.756264 108 96 86
-5.909111 0.401813 -46.423477 104 93 85
-6.123299 0.355807 -41.108185 105 98 81
-4.750306 0.272290 -31.458998 103 96 79
-4.725183 0.270118 -31.208128 108 101 84
-4.700459 0.267981 -30.961227 103 96 81
-9.337221 0.485284 -56.067326 101 93 80
-9.189002 0.476411 -55.042183 100 93 78
-9.147180 0.473084 -54.657810 101 94 79
-9.030785 0.465926 -53.830799 102 95 78
-25.466349 1.249920 -144.409561 101 97 79
-24.793478 1.214080 -140.268784 101 97 79
-23.582926 1.152137 -133.112213 99 95 77
-16.535936 0.791421 -91.436897 102 95 80
-16.269220 0.776900 -89.759155 101 94 79
-16.048264 0.764624 -88.340843 101 94 79
-15.660176 0.744458 -86.010971 103 95 82
-14.699550 0.694115 -80.194656 98 93 78
-14.856455 0.698409 -80.690704 101 97 79
-14.858808 0.696972 -80.524673 100 93 76
-11.147145 0.517142 -59.748081 99 90 76
-5.193392 0.227946 -26.335796 98 91 74
-5.179759 0.226878 -26.212318 105 98 83
6.046355 0.295539 -35.837906 19 15 10
6.020676 0.294998 -35.772388 15 10 7
5.978726 0.293656 -35.609638 21 16 15
6.159292 0.308536 -37.413952 21 15 10
6.143996 0.308536 -37.413952 16 9 6
5.990821 0.315781 -38.292557 24 10 12
5.923007 0.313024 -37.958286 25 11 13
5.738480 0.306485 -37.165234 14 6 6
6.678790 0.368411 -44.674648 26 13 15
6.637793 0.367154 -44.522175 25 12 14
7.981493 0.446374 -54.128620 23 9 10
7.786458 0.437894 -53.100395 22 7 5
7.876260 0.467722 -56.717381 27 18 4
7.796575 0.464357 -56.309341 36 28 15
6.599035 0.398922 -48.374527 22 12 5
6.538845 0.396472 -48.077385 29 19 12
6.448190 0.394533 -47.842289 67 51 35
3.150012 0.196307 -23.804739 31 27 32
3.119408 0.195002 -23.646521 32 28 33
17.551344 1.173557 -142.309067 103 92 78
17.002197 1.144426 -138.776566 73 61 49
16.592430 1.120584 -135.885391 55 45 35
16.089931 1.090298 -132.212814 52 43 34
16.090237 1.093994 -132.660995 74 64 57
16.368927 1.116707 -135.415192 98 89 86
16.484684 1.128420 -136.835632 62 51 53
16.428740 1.128420 -136.835632 36 28 29
29.518192 2.241168 -271.770782 123 107 101
29.407082 2.241168 -271.770782 121 105 99
29.295969 2.241168 -271.770782 126 110 104
29.184858 2.241168 -271.770782 106 92 86
29.073748 2.241168 -271.770782 63 49 43
10.496328 0.858320 -104.082428 64 48 42
10.398464 0.853778 -103.531723 57 41 35
10.247695 0.844838 -102.447624 38 19 16
10.047988 0.831774 -100.863380 35 16 13
9.955434 0.827508 -100.346130 33 12 11
2.608577 0.234200 -28.399849 87 15 8
2.595083 0.234031 -28.379255 91 21 14
4.906899 0.452634 -54.887787 85 22 14
4.877618 0.452000 -54.810913 82 20 12
4.862019 0.452634 -54.887787 82 21 11
3.920069 0.371807 -45.086395 89 21 14
3.892666 0.370952 -44.982750 88 23 15
3.860961 0.369677 -44.828171 74 14 8
3.829474 0.368411 -44.674648 78 24 17
3.811209 0.368411 -44.674648 89 41 35
3.774680 0.368411 -44.674648 70 22 16
3.756415 0.368411 -44.674648 74 19 14
3.733888 0.367991 -44.623707 84 22 16
3.711412 0.367572 -44.572884 83 17 12
3.693188 0.367572 -44.572884 84 21 13
3.054402 0.321442 -38.979076 72 17 10
11.453358 1.322657 -160.389313 77 22 17
11.341304 1.317258 -159.734665 74 19 14
2.134135 0.253717 -30.766502 74 15 5
2.111596 0.252526 -30.622059 75 19 8
2.086018 0.250955 -30.431564 75 21 10
2.067147 0.250177 -30.337204 75 22 12
2.031126 0.247301 -29.988501 76 22 15
2.011160 0.246357 -29.874041 74 22 16
2.000473 0.246546 -29.896862 74 21 18
1.988250 0.246546 -29.896862 77 23 22
1.473211 0.204000 -24.737669 74 21 18
1.464949 0.204258 -24.768982 78 25 22
1.457590 0.204647 -24.816101 73 22 19
1.610364 0.273730 -33.193378 78 20 14
1.598149 0.273963 -33.221554 77 22 15
1.581881 0.273498 -33.165249 78 20 14
3.138302 0.582542 -70.640778 84 44 32
3.098236 0.580446 -70.386673 109 80 66
3.052986 0.577331 -70.008934 107 91 78
0.490746 0.207676 -25.183393 100 95 80
0.478602 0.206877 -25.086533 101 96 81
0.466849 0.206216 -25.006384 100 96 78
0.454593 0.205298 -24.895033 104 100 82
0.061023 0.217325 -26.353531 106 97 87
0.049913 0.215872 -26.177252 107 98 88
0.039054 0.215009 -26.072613 105 96 86
-3.813874 1.735098 -210.403183 104 97 80
-3.501655 1.403166 -170.152145 104 97 80
-3.586815 1.409294 -170.895157 108 101 84
-3.593908 1.385100 -167.961334 112 105 88
-0.733904 0.258183 -31.307993 99 96 82
-0.746704 0.258183 -31.307993 100 97 83
-0.758291 0.257770 -31.257980 104 100 89
-0.769841 0.257359 -31.208128 105 101 90
-1.369523 0.416423 -50.496765 104 97 80
-6.356864 1.876327 -227.529022 104 97 82
-6.062189 1.763542 -213.852417 105 97 84
-5.892045 1.689677 -204.895248 103 94 84
-1.839146 0.445142 -53.979301 63 39 33
-1.853545 0.443308 -53.756859 58 34 28
-1.891109 0.446992 -54.203590 50 28 23
-1.918584 0.448234 -54.354156 42 20 15
-1.106560 0.207943 -25.215845 53 33 15
-1.114714 0.207542 -25.167198 56 36 18
-2.123219 0.384658 -46.644806 70 51 36
-3.239392 0.517193 -62.716335 29 26 22
-2.198480 0.345533 -41.900421 29 28 24
-2.208517 0.344427 -41.766266 31 30 26
-2.225593 0.344427 -41.766266 23 22 18
-2.240278 0.344060 -41.721741 27 24 20
-8.077466 1.169305 -141.793457 33 21 19
-8.165020 1.173557 -142.309067 37 28 25
-8.193408 1.169305 -141.793457 21 11 11
-8.192017 1.160893 -140.773346 21 13 14
-1.511141 0.206877 -25.086533 28 25 20
-1.519450 0.206612 -25.054413 33 32 22
-1.531654 0.206877 -25.086533 23 23 11
-1.540923 0.206745 -25.070463 29 29 15
-2.026946 0.245795 -29.805782 52 48 37
-2.040686 0.245982 -29.828501 36 30 19
-2.052881 0.245982 -29.828501 27 21 10
-10.191006 1.199733 -145.483246 33 23 16
-10.309965 1.199733 -145.483246 40 28 24
-10.292917 1.190879 -144.409561 36 24 20
-1.851977 0.207143 -25.118736 55 33 21
-1.864640 0.207409 -25.151024 68 42 35
-2.439755 0.264098 -32.025360 56 31 21
-2.452848 0.264098 -32.025360 66 44 32
-6.953413 0.636545 -77.189331 85 79 72
-6.903276 0.629100 -76.286537 105 98 89
-6.854298 0.621827 -75.404610 104 95 85
-2.508621 0.207943 -25.215845 104 99 84
-2.507621 0.207010 -25.102625 100 95 80
-2.519500 0.207143 -25.118736 105 98 83
-2.862698 0.217618 -26.389071 105 98 83
-2.856153 0.216306 -26.229887 107 100 83
-2.847790 0.214866 -26.055254 107 101 82
-2.835786 0.213163 -25.848740 103 97 78
-3.794996 0.268270 -32.531166 97 90 75
-3.789397 0.266938 -32.369720 102 95 80
-3.796350 0.266497 -32.316261 103 96 81
-3.812711 0.266718 -32.342968 103 96 81
-3.803928 0.265183 -32.156937 102 95 80
-5.339312 0.358587 -43.483326 102 95 78
-5.333385 0.357000 -43.290920 104 97 80
-5.345171 0.356606 -43.243084 103 96 79
-5.987112 0.391660 -47.493923 105 96 82
-5.970302 0.389298 -47.207470 109 97 85
-5.925275 0.385117 -46.700466 101 89 79
-5.923163 0.383743 -46.533878 104 93 85
-5.886196 0.380127 -46.095398 97 85 79
-6.129737 0.339357 -41.151413 103 96 79
-11.164190 0.493468 -59.839439 101 92 78
-11.120639 0.490468 -59.475674 103 94 81
-11.027639 0.485306 -58.849613 105 96 83
-10.920327 0.479537 -58.150063 107 97 87
-34.791496 1.508076 -182.873795 100 93 78
-33.761902 1.460309 -177.081406 101 94 79
-5.176292 0.216016 -26.194775 102 95 80
6.015178 0.280117 -35.739719 26 20 15
5.973290 0.278844 -35.577267 26 21 18
6.153409 0.292959 -37.378216 22 16 11
6.138128 0.292959 -37.378216 22 16 11
6.678790 0.350146 -44.674648 22 11 13
6.645353 0.349349 -44.572884 21 8 10
8.003633 0.425421 -54.278770 21 9 9
7.893854 0.420752 -53.683117 20 8 8
7.797038 0.416750 -53.172543 19 5 6
7.945509 0.447126 -57.048092 35 28 13
7.922186 0.447126 -57.048092 30 23 8
7.853072 0.444534 -56.717381 39 31 18
6.635216 0.380085 -48.494415 19 12 3
6.590889 0.378677 -48.314804 20 13 4
6.522818 0.375892 -47.959549 30 23 14
6.495837 0.377744 -48.195805 63 48 32
3.153849 0.186802 -23.833735 27 25 25
3.126965 0.185783 -23.703812 14 12 12
3.092921 0.184332 -23.518625 12 12 12
17.002197 1.087689 -138.776566 56 46 29
16.592430 1.065029 -135.885391 45 36 23
16.089931 1.036244 -132.212814 67 58 49
15.928254 1.029289 -131.325470 97 88 84
16.145460 1.046854 -133.566528 94 87 84
29.518192 2.130057 -271.770782 117 102 99
29.295969 2.130057 -271.770782 116 100 94
29.184858 2.130057 -271.770782 121 105 99
27.363527 2.004760 -255.784256 119 103 97
10.524319 0.817942 -104.359978 84 67 64
10.426046 0.813603 -103.806343 63 46 43
10.274591 0.805061 -102.716515 38 18 17
10.126284 0.796697 -101.649330 34 14 13
10.006751 0.790537 -100.863380 32 11 13
2.631647 0.223563 -28.524046 91 22 13
2.618077 0.223400 -28.503271 87 20 11
2.604527 0.223237 -28.482527 90 23 14
4.922436 0.429591 -54.810913 88 21 12
4.900027 0.429591 -54.810913 83 26 17
4.870796 0.428991 -54.734253 88 35 25
4.855209 0.429591 -54.810913 79 26 16
3.888197 0.352156 -44.931107 85 20 12
3.860961 0.351350 -44.828171 80 20 14
3.825108 0.349747 -44.623707 78 26 20
3.766081 0.349349 -44.572884 86 44 37
3.752131 0.349747 -44.623707 73 27 20
3.729635 0.349349 -44.572884 83 28 21
3.707189 0.348951 -44.522175 80 20 14
3.684795 0.348555 -44.471581 85 23 15
3.060498 0.306116 -39.056877 79 19 13
3.035442 0.305202 -38.940292 83 23 17
2.999620 0.306422 -39.095898 69 15 8
2.974720 0.305506 -38.979076 74 20 13
2.159602 0.244016 -31.133646 75 16 6
2.128249 0.241899 -30.863558 75 18 9
2.104015 0.240571 -30.694111 76 21 12
2.075190 0.238699 -30.455246 74 20 13
2.012696 0.234323 -29.896862 74 19 16
1.974519 0.234144 -29.874041 73 16 17
1.957821 0.233609 -29.805782 70 14 13
1.941200 0.233076 -29.737837 74 18 17
1.936399 0.233965 -29.851254 79 23 22
1.927135 0.234323 -29.896862 71 18 15
1.474934 0.192790 -24.597733 69 16 13
1.473211 0.193886 -24.737669 72 19 16
1.466806 0.194378 -24.800375 76 23 20
3.161126 0.557688 -71.154533 74 31 22
3.115044 0.554662 -70.768524 95 63 52
3.074990 0.552663 -70.513496 100 82 71
0.491379 0.197634 -25.215845 101 95 82
0.478909 0.196747 -25.102625 105 99 86
0.467148 0.196118 -25.022373 103 98 83
0.454593 0.195120 -24.895033 104 99 84
0.224116 0.189572 -24.187263 106 101 86
0.049779 0.204622 -26.107399 106 98 85
0.038950 0.203806 -26.003317 106 98 85
0.028244 0.203266 -25.934389 103 97 84
-3.773301 1.631533 -208.164856 108 100 83
-3.778024 1.597543 -203.828079 101 94 77
-3.786903 1.533641 -195.674957 102 95 78
-3.736138 1.481779 -189.057938 102 95 78
-3.660821 1.394219 -177.886322 101 94 77
-3.634427 1.357204 -173.163681 104 97 80
-3.593908 1.316430 -167.961334 108 101 84
-1.083480 0.344252 -43.922550 104 100 89
-1.101437 0.344252 -43.922550 108 102 89
-1.123176 0.345415 -44.070938 105 99 86
-1.139911 0.345026 -44.021362 103 98 83
-1.369523 0.395778 -50.496765 104 96 79
-1.388377 0.395268 -50.431690 105 97 80
-5.892045 1.605907 -204.895248 90 83 74
-1.876746 0.426604 -54.429752 51 30 22
-1.906956 0.428391 -54.657810 59 37 31
-1.110136 0.198273 -25.297344 57 35 17
-1.116150 0.197507 -25.199608 62 40 22
-2.128292 0.366461 -46.756264 61 42 27
-3.218759 0.488421 -62.316868 20 16 15
-3.228812 0.486099 -62.020592 20 16 15
-1.510173 0.196495 -25.070463 23 19 14
-1.518478 0.196243 -25.038383 20 17 9
-1.529693 0.196369 -25.054413 33 31 21
-1.538951 0.196243 -25.038383 43 41 30
-1.547208 0.195992 -25.006384 45 43 32
-1.557432 0.195992 -25.006384 40 38 27
-2.030039 0.233965 -29.851254 63 62 48
-2.045363 0.234323 -29.896862 43 40 26
-2.057586 0.234323 -29.896862 23 20 6
-2.423485 0.252036 -32.156937 68 43 33
-2.430640 0.251417 -32.077862 64 39 29
-2.439755 0.251005 -32.025360 64 42 31
-6.967155 0.606182 -77.341881 71 66 57
-6.889845 0.596748 -76.138115 105 99 88
-2.860769 0.206690 -26.371288 102 97 82
-2.850422 0.205169 -26.177252 104 100 82
-2.842113 0.203806 -26.003317 102 98 79
-2.833915 0.202461 -25.831678 100 96 77
-2.775819 0.196118 -25.022373 104 98 79
-3.779288 0.253914 -32.396515 103 95 82
-3.773789 0.252659 -32.236401 102 96 83
-5.984740 0.370893 -47.321636 105 93 81
-5.946563 0.367339 -46.868256 104 92 82
-5.930215 0.365153 -46.589275 102 89 81
-6.223230 0.330170 -42.125935 102 95 80
-6.193782 0.327701 -41.810890 102 95 80
-6.164773 0.325269 -41.500523 104 97 82
-6.142656 0.323212 -41.238136 101 97 79
-7.667102 0.351350 -44.828171 106 96 86
-7.572664 0.346194 -44.170422 108 97 89
-7.464351 0.340431 -43.435062 104 95 85
-7.351560 0.334491 -42.677200 99 93 80
-7.281660 0.330526 -42.171329 101 96 81
-7.267576 0.329108 -41.990334 99 94 79
-11.096323 0.466152 -59.475674 101 94 79
-11.103764 0.465445 -59.385422 100 92 79
-11.044248 0.461940 -58.938240 104 96 83
-35.301811 1.460611 -186.357101 103 95 82
-34.716732 1.433309 -182.873795 98 90 77
-34.791496 1.433309 -182.873795 99 93 80
-33.609821 1.381659 -176.283752 100 95 80
5.967865 0.264058 -35.544952 27 21 16
32.380711 1.483307 -199.668335 17 8 5
6.686422 0.332261 -44.725704 19 11 12
6.660525 0.331882 -44.674648 19 8 10
6.627130 0.331126 -44.572884 18 7 9
7.937407 0.401004 -53.979301 21 9 9
7.828949 0.396628 -53.390167 18 6 6
7.922412 0.422570 -56.882256 32 24 11
7.899157 0.422570 -56.882256 37 29 16
6.643449 0.360705 -48.554581 21 14 5
6.590889 0.358924 -48.314804 26 19 10
6.381820 0.352825 -47.493923 52 42 32
3.161667 0.176950 -23.819229 12 10 10
3.148097 0.176734 -23.790268 13 11 11
3.123182 0.175879 -23.675131 9 9 9
3.092921 0.174716 -23.518625 14 14 14
16.767086 1.020099 -137.315765 39 31 18
7.522182 0.473499 -63.737774 38 33 34
29.518192 2.018946 -271.770782 113 98 95
29.295969 2.018946 -271.770782 120 104 98
29.184858 2.018946 -271.770782 116 100 94
26.837305 1.863642 -250.865341 116 100 94
27.258951 1.900184 -255.784256 124 105 102
26.803997 1.875666 -252.483826 112 93 90
25.235485 1.772733 -238.628006 84 64 63
10.594662 0.783634 -105.485153 54 36 35
10.383606 0.771162 -103.806343 37 17 16
10.286594 0.767093 -103.258553 36 15 17
2.612131 0.212210 -28.565687 90 25 16
4.915552 0.406613 -54.734253 85 20 11
4.893174 0.406613 -54.734253 82 29 19
4.863994 0.406045 -54.657810 108 62 51
4.848419 0.406613 -54.734253 98 52 41
4.832800 0.407182 -54.810913 74 25 15
3.883738 0.333404 -44.879578 85 19 14
3.852136 0.332261 -44.725704 83 20 16
3.812068 0.330373 -44.471581 77 22 17
3.780996 0.329251 -44.320488 84 40 33
3.725392 0.330749 -44.522175 71 28 19
3.707189 0.330749 -44.522175 71 22 14
3.688987 0.330749 -44.522175 75 20 11
3.057447 0.289859 -39.017937 84 24 18
3.038465 0.289570 -38.979076 87 27 21
3.025543 0.289859 -39.017937 83 23 17
3.009591 0.289859 -39.017937 77 22 15
2.999620 0.290438 -39.095898 77 22 15
2.971761 0.289282 -38.940292 77 19 13
2.938298 0.287565 -38.709190 73 15 9
1.954844 0.221086 -29.760450 77 20 19
1.938254 0.220583 -29.692711 73 16 15
1.929042 0.220918 -29.737837 79 22 20
1.919802 0.221254 -29.783098 70 13 11
1.492495 0.183656 -24.722042 67 20 16
